# .PCD v.7 - Point Cloud Data file format
VERSION .7
FIELDS x y z
SIZE 4 4 4
TYPE F F F
COUNT 1 1 1
WIDTH 1611
HEIGHT 1
VIEWPOINT 0 0 0 1 0 0 0
POINTS 1611
DATA ascii
0.124659 0.0331196 -0.0521985
0.124659 0.0332004 -0.0522308
0.124642 0.0333384 -0.0522541
0.124601 0.032825 -0.0519635
0.124638 0.0329208 -0.0520762
0.124644 0.0329445 -0.0520971
0.124531 0.0330227 -0.0520063
0.124319 0.0329554 -0.0517734
0.124327 0.0329527 -0.05177
0.124335 0.0329498 -0.0517664
0.124366 0.0329292 -0.0517536
0.122933 0.0430034 -0.0528095
0.122683 0.0429686 -0.0526466
0.122677 0.0429676 -0.0526465
0.122635 0.04296 -0.052646
0.122625 0.0429582 -0.0526482
0.122618 0.0429568 -0.0526499
0.12281 0.0429888 -0.052683
0.122784 0.0429852 -0.0526683
0.122779 0.0429844 -0.0526661
0.122748 0.0429794 -0.0526579
0.122729 0.0429764 -0.0526529
0.122707 0.0429727 -0.0526469
0.122908 0.0430012 -0.052771
0.122904 0.0430009 -0.0527646
0.122898 0.0430003 -0.0527547
0.122868 0.0429967 -0.0527259
0.122864 0.0429961 -0.0527217
0.122845 0.0429938 -0.0527036
0.122827 0.0429912 -0.052693
0.122764 0.0430586 -0.052664
0.122483 0.0431895 -0.052555
0.122416 0.0432301 -0.0524676
0.122666 0.0431663 -0.0526089
0.122617 0.0431416 -0.0526064
0.122643 0.043088 -0.0526294
0.122563 0.0434297 -0.0523349
0.122553 0.0433963 -0.052339
0.122595 0.0433972 -0.0524098
0.122544 0.0433806 -0.052343
0.122567 0.0433474 -0.0524135
0.122573 0.0434651 -0.0523306
0.122572 0.0434606 -0.0523311
0.122615 0.0434511 -0.0524118
0.122575 0.0434839 -0.0523304
0.122821 0.0431757 -0.0527018
0.122771 0.043366 -0.0526489
0.122747 0.0433261 -0.0526194
0.122676 0.0434771 -0.0525046
0.122577 0.0435188 -0.0523301
0.122579 0.0435406 -0.0523299
0.122682 0.0435261 -0.0525246
0.122579 0.043541 -0.0523299
0.122628 0.0435631 -0.0524332
0.122576 0.043577 -0.0523326
0.122874 0.0432193 -0.0527793
0.122858 0.043263 -0.0527666
0.122852 0.0431988 -0.0527394
0.122854 0.0432739 -0.0527635
0.122794 0.0433943 -0.052693
0.122809 0.0430736 -0.0526885
0.122567 0.043121 -0.0526127
0.12258 0.0430965 -0.0526243
0.122592 0.0430707 -0.0526337
0.122588 0.043188 -0.0525744
0.122554 0.0431437 -0.0525991
0.122635 0.0432169 -0.0525736
0.122678 0.0432502 -0.0525809
0.122611 0.0430157 -0.0526455
0.122619 0.0429872 -0.0526477
0.122663 0.0430292 -0.0526423
0.122714 0.0430437 -0.0526485
0.122693 0.0431077 -0.0526342
0.12274 0.0431294 -0.0526481
0.122711 0.0431942 -0.0526201
0.122783 0.0431523 -0.052671
0.122752 0.0432245 -0.0526399
0.122716 0.0432871 -0.0525964
0.122383 0.0432367 -0.0524196
0.122406 0.0432444 -0.0524086
0.122441 0.0432402 -0.0524565
0.122413 0.0432468 -0.0524052
0.122432 0.0432589 -0.052396
0.122465 0.0432528 -0.0524464
0.122449 0.04327 -0.0523876
0.122488 0.0432676 -0.0524374
0.122454 0.0432736 -0.052385
0.12245 0.0432147 -0.0525134
0.122514 0.0431551 -0.0525908
0.122475 0.0432248 -0.0525035
0.122508 0.0431994 -0.0525464
0.122499 0.0432372 -0.0524951
0.122532 0.0432113 -0.0525395
0.122522 0.0432517 -0.052488
0.122539 0.0431645 -0.0525833
0.122469 0.0432832 -0.0523777
0.12251 0.0432847 -0.0524295
0.122489 0.0433043 -0.0523684
0.122495 0.0433105 -0.0523656
0.122531 0.0433038 -0.0524229
0.122519 0.0433359 -0.0523544
0.122529 0.0433543 -0.0523497
0.122566 0.0432864 -0.0524785
0.122604 0.0433277 -0.0524753
0.122636 0.0433745 -0.0524788
0.122564 0.0431755 -0.0525779
0.122556 0.043225 -0.0525343
0.122601 0.0432572 -0.0525294
0.122642 0.0432951 -0.0525319
0.122677 0.0433375 -0.0525419
0.12266 0.0434249 -0.0524888
0.122901 0.0431416 -0.0528018
0.122787 0.043405 -0.0526836
0.122766 0.043437 -0.0526553
0.1227 0.0435137 -0.0525553
0.122135 0.0432869 -0.0517488
0.121832 0.0433075 -0.0511153
0.121828 0.0433044 -0.0511166
0.122091 0.0432623 -0.0517695
0.121785 0.0432845 -0.0511315
0.122042 0.0432468 -0.0517924
0.121762 0.0432741 -0.0511394
0.121735 0.0432672 -0.0511487
0.121931 0.0434189 -0.0510807
0.121926 0.0434066 -0.0510825
0.122211 0.0433636 -0.0517143
0.121962 0.0436158 -0.0510701
0.121965 0.0435796 -0.0510693
0.122262 0.0435957 -0.0516966
0.122265 0.0435597 -0.0516939
0.122265 0.0435955 -0.0517033
0.122262 0.0435024 -0.0516934
0.121967 0.0435517 -0.0510686
0.12225 0.0434477 -0.0516975
0.122231 0.0433984 -0.0517055
0.121962 0.0435227 -0.0510701
0.121955 0.043478 -0.0510724
0.122176 0.0433213 -0.0517299
0.121885 0.0433507 -0.0510969
0.12191 0.0433849 -0.0510881
0.121042 0.0497897 -0.0478788
0.120759 0.049718 -0.0479759
0.120585 0.0496512 -0.0480357
0.120429 0.0495915 -0.0480892
0.120084 0.0494024 -0.0482077
0.119967 0.0493146 -0.048248
0.119768 0.0491652 -0.0483166
0.119485 0.0488845 -0.0484139
0.119444 0.0488317 -0.0484278
0.119245 0.0485711 -0.0484966
0.119051 0.0482342 -0.0485639
0.119049 0.0482279 -0.0485648
0.118902 0.0478727 -0.0486164
0.11881 0.0475375 -0.0486487
0.118798 0.0474928 -0.048653
0.118743 0.0471012 -0.0486729
0.118739 0.0468061 -0.0486751
0.118737 0.0467046 -0.0486758
0.118782 0.0463053 -0.0486616
0.137738 0.0530701 -0.0421635
0.153389 0.0504672 -0.0379398
0.151966 0.0511413 -0.0373065
0.153385 0.050468 -0.0379257
0.15313 0.0505219 -0.0369106
0.139119 0.0532966 -0.0416909
0.143503 0.0534367 -0.0401919
0.141308 0.0534754 -0.0409422
0.145686 0.0531807 -0.0394467
0.147837 0.0527098 -0.0387132
0.149936 0.052028 -0.0379977
0.154514 0.0486903 -0.0364432
0.15457 0.0484377 -0.0364248
0.15483 0.0483809 -0.0374381
0.154496 0.0493345 -0.0375772
0.154384 0.0490729 -0.0364864
0.154723 0.0488132 -0.0374897
0.154454 0.0488674 -0.0364632
0.153989 0.0497609 -0.0366193
0.15421 0.0494266 -0.0365447
0.154228 0.0493895 -0.0365386
0.153915 0.0498466 -0.0366444
0.154183 0.0497948 -0.0376833
0.153732 0.050058 -0.0367065
0.153812 0.0501712 -0.0377997
0.153547 0.0502213 -0.036769
0.153445 0.0503119 -0.0368037
0.156151 0.0409307 -0.0370241
0.155902 0.0409011 -0.0359917
0.156147 0.0409303 -0.03701
0.155423 0.0386147 -0.0361624
0.155272 0.0384101 -0.0362146
0.155513 0.0384348 -0.0372342
0.15601 0.0393132 -0.0370894
0.155623 0.0389613 -0.036093
0.155767 0.0387969 -0.0371627
0.155515 0.0387751 -0.0361303
0.155882 0.0397173 -0.0360023
0.155774 0.0393258 -0.0360401
0.155758 0.0392877 -0.0360457
0.155898 0.0398323 -0.0359963
0.156154 0.039859 -0.0370392
0.155939 0.0401155 -0.0359816
0.156198 0.040398 -0.0370131
0.155943 0.0403696 -0.0359794
0.155945 0.0405106 -0.0359781
0.154398 0.0373903 -0.0365163
0.141784 0.0301873 -0.0408485
0.143149 0.0305005 -0.0403808
0.151081 0.0343588 -0.0376586
0.152807 0.0357922 -0.0370646
0.149236 0.0331027 -0.0382929
0.147287 0.032035 -0.038962
0.145253 0.031165 -0.0396601
0.125088 0.0269069 -0.0465638
0.121789 0.029299 -0.0476843
0.121857 0.0289995 -0.047662
0.12192 0.0288155 -0.047641
0.121977 0.0286508 -0.0476222
0.122156 0.0282863 -0.0475621
0.12224 0.0281624 -0.047534
0.122381 0.0279514 -0.0474863
0.122647 0.0276522 -0.0473961
0.122697 0.0276095 -0.0473791
0.122944 0.0273985 -0.0472952
0.123263 0.0271936 -0.0471869
0.123269 0.0271909 -0.0471849
0.123605 0.0270349 -0.0470707
0.123922 0.0269381 -0.0469626
0.123965 0.0269252 -0.0469482
0.124335 0.0268665 -0.0468216
0.124614 0.0268617 -0.0467261
0.12471 0.0268601 -0.0466932
0.154901 0.0398758 -0.0366262
0.154857 0.0396988 -0.0366421
0.154848 0.0396959 -0.0365952
0.154818 0.0392365 -0.0363712
0.154855 0.0392113 -0.0363547
0.155033 0.0395926 -0.0362928
0.154638 0.0389772 -0.0364335
0.154671 0.0389462 -0.0364183
0.15477 0.039272 -0.0364075
0.154596 0.0390209 -0.0364678
0.154732 0.0393043 -0.0364563
0.154563 0.0390607 -0.0365148
0.154706 0.0393317 -0.036515
0.154541 0.0390943 -0.0365719
0.154693 0.0393525 -0.0365804
0.154532 0.03912 -0.0366361
0.154694 0.0393658 -0.0366488
0.154535 0.0391363 -0.0367039
0.154545 0.0391415 -0.0367503
0.154703 0.0393701 -0.0366955
0.154739 0.0394472 -0.0366829
0.154963 0.0403328 -0.0366036
0.154946 0.0400529 -0.0366104
0.154938 0.0400514 -0.0365634
0.154961 0.0404188 -0.0365546
0.154969 0.0404187 -0.0366016
0.154932 0.0407018 -0.0365637
0.154933 0.0407035 -0.0365374
0.154963 0.0404194 -0.0364848
0.154982 0.0404205 -0.0364175
0.154942 0.0407092 -0.0364646
0.154934 0.0407062 -0.0364941
0.155015 0.040422 -0.0363563
0.154968 0.0407178 -0.0363965
0.154951 0.0407132 -0.036427
0.155062 0.0404239 -0.0363044
0.15501 0.0407286 -0.0363371
0.154984 0.0407224 -0.036366
0.155129 0.0407544 -0.0362564
0.155086 0.0407457 -0.0362751
0.155119 0.040426 -0.0362647
0.155065 0.0407411 -0.03629
0.15503 0.0407335 -0.0363144
0.154849 0.039687 -0.036526
0.154865 0.039673 -0.0364596
0.154895 0.0396547 -0.0363994
0.154938 0.0396331 -0.0363489
0.154992 0.0396093 -0.0363107
0.155137 0.0400032 -0.036256
0.15494 0.0400472 -0.0364938
0.154958 0.0400406 -0.0364266
0.154991 0.0400321 -0.0363656
0.155037 0.040022 -0.0363141
0.155094 0.040011 -0.0362747
0.155163 0.0404275 -0.0362458
0.153798 0.0482809 -0.0366889
0.153755 0.0482722 -0.0367076
0.153734 0.0482676 -0.0367225
0.153699 0.04826 -0.036747
0.153679 0.0482551 -0.0367696
0.153653 0.048249 -0.0367985
0.153637 0.0482443 -0.036829
0.153621 0.0482397 -0.0368595
0.153611 0.0482358 -0.0368971
0.153603 0.0482327 -0.0369266
0.153602 0.04823 -0.0369699
0.153601 0.0482283 -0.0369962
0.153291 0.0489818 -0.0371495
0.153394 0.0488337 -0.037115
0.153385 0.0488376 -0.0370683
0.153677 0.048583 -0.0367335
0.153718 0.0485986 -0.0367154
0.153549 0.0489845 -0.0367721
0.153623 0.048561 -0.036772
0.15358 0.048541 -0.0368228
0.153549 0.0485242 -0.0368832
0.153533 0.0485114 -0.0369498
0.153532 0.0485035 -0.0370192
0.15354 0.048501 -0.037066
0.153505 0.0485791 -0.0370775
0.152994 0.04932 -0.0372503
0.153189 0.0491299 -0.037184
0.153179 0.049135 -0.0371377
0.152696 0.0495381 -0.0373017
0.152708 0.0495313 -0.0373474
0.152934 0.0493783 -0.0372706
0.152753 0.0497936 -0.0370417
0.152733 0.0497518 -0.0370526
0.152989 0.0495782 -0.0369656
0.152709 0.0496928 -0.0370811
0.152957 0.0495247 -0.0369967
0.152693 0.0496392 -0.0371227
0.152934 0.0494761 -0.0370409
0.152685 0.0495941 -0.0371753
0.152919 0.0494351 -0.0370956
0.152686 0.0495597 -0.0372361
0.152916 0.049404 -0.037158
0.152923 0.0493845 -0.0372246
0.153384 0.0488499 -0.0369996
0.153397 0.0488696 -0.036934
0.153424 0.0488956 -0.036875
0.153463 0.0489264 -0.0368258
0.153511 0.0489604 -0.036789
0.153311 0.049328 -0.0368522
0.153176 0.0491513 -0.0370699
0.153185 0.0491772 -0.0370057
0.153206 0.0492113 -0.0369486
0.153238 0.0492518 -0.0369017
0.153279 0.0492964 -0.0368674
0.153015 0.0496161 -0.0369526
0.121278 0.0321998 -0.0478561
0.121274 0.0322519 -0.0478699
0.121275 0.0322673 -0.0478778
0.121284 0.0321522 -0.0478483
0.12128 0.0321816 -0.0478513
0.122284 0.0326185 -0.0503072
0.121347 0.0324521 -0.0481263
0.121329 0.0324436 -0.0480816
0.121324 0.032441 -0.0480678
0.121276 0.0323129 -0.0479011
0.121279 0.0323285 -0.0479139
0.121285 0.0323688 -0.047947
0.121289 0.0323801 -0.0479617
0.121301 0.0324127 -0.0480041
0.121306 0.0324191 -0.0480186
0.123222 0.0329724 -0.0524494
0.123221 0.0329575 -0.0524419
0.123209 0.0328589 -0.0523762
0.123203 0.0328446 -0.0523585
0.123138 0.032771 -0.0521965
0.123158 0.03278 -0.0522405
0.123165 0.0327831 -0.052256
0.123183 0.0328051 -0.0523025
0.12319 0.0328134 -0.0523199
0.123216 0.0328962 -0.052406
0.123219 0.032913 -0.0524193
0.123218 0.0330254 -0.0524633
0.123218 0.0330188 -0.0524616
0.123217 0.0330409 -0.0524674
0.123891 0.0326802 -0.0504432
0.123895 0.0326632 -0.0504417
0.124182 0.0327148 -0.0510707
0.123873 0.0327153 -0.0504489
0.123861 0.0327405 -0.050453
0.12416 0.0327673 -0.0510765
0.123844 0.0327615 -0.0504587
0.124131 0.0328139 -0.0510864
0.123818 0.0327935 -0.0504674
0.124018 0.0329028 -0.0511312
0.123769 0.0328315 -0.0504839
0.124065 0.0328769 -0.0511116
0.123809 0.0328004 -0.0504704
0.124096 0.0328524 -0.0510995
0.123633 0.032872 -0.0505306
0.123678 0.0328648 -0.0505153
0.123968 0.0329187 -0.051153
0.123704 0.0328604 -0.0505062
0.123729 0.0328493 -0.0504976
0.123918 0.0329243 -0.0511754
0.123868 0.0329198 -0.0511989
0.123627 0.0328714 -0.050533
0.123574 0.0328672 -0.0505511
0.123905 0.0326283 -0.0504387
0.124192 0.0326797 -0.0510693
0.124195 0.0326802 -0.0510761
0.122057 0.032304 -0.0475838
0.12205 0.0323515 -0.0475924
0.122047 0.0323783 -0.0475973
0.122045 0.0324184 -0.047615
0.122044 0.0324479 -0.0476281
0.122046 0.0324789 -0.0476519
0.122048 0.0325082 -0.0476744
0.122053 0.0325295 -0.0477009
0.122058 0.0325555 -0.0477332
0.122065 0.0325675 -0.0477593
0.122075 0.0325866 -0.0478006
0.122083 0.0325909 -0.0478239
0.122097 0.0325993 -0.0478698
0.119967 0.0462527 -0.0485462
0.119925 0.04649 -0.0485598
0.11993 0.0462498 -0.0484844
0.119902 0.0464884 -0.0485179
0.119929 0.0462497 -0.0484829
0.119886 0.0464866 -0.0484975
0.119858 0.0464837 -0.0484641
0.119879 0.0462437 -0.0484314
0.119834 0.0464805 -0.0484455
0.119877 0.0462435 -0.0484305
0.119803 0.0464764 -0.0484219
0.119815 0.0462348 -0.0483928
0.119772 0.0464716 -0.0484078
0.119814 0.0462346 -0.0483924
0.119745 0.0462236 -0.0483711
0.11974 0.0464668 -0.0483937
0.119744 0.0462235 -0.048371
0.119702 0.0464605 -0.0483865
0.119672 0.0462109 -0.0483675
0.119672 0.0464556 -0.0483809
0.119672 0.0462108 -0.0483675
0.119558 0.0464346 -0.0483959
0.1196 0.0461973 -0.0483822
0.119604 0.0464433 -0.0483843
0.11963 0.0464479 -0.048383
0.11898 0.0457595 -0.048859
0.118974 0.045763 -0.0488472
0.119975 0.0456789 -0.0510577
0.118995 0.0457564 -0.0488908
0.118951 0.0457768 -0.0488005
0.118943 0.0457849 -0.0487868
0.118924 0.0458055 -0.0487513
0.118859 0.0459316 -0.0486636
0.118843 0.0459782 -0.04865
0.118839 0.0459981 -0.0486491
0.118913 0.0458223 -0.0487345
0.118892 0.0458537 -0.0487028
0.118884 0.0458717 -0.0486923
0.118866 0.04591 -0.0486699
0.118828 0.0460456 -0.0486467
0.119744 0.0459036 -0.0486343
0.119727 0.0459118 -0.0485894
0.119719 0.045916 -0.0485666
0.119702 0.0459348 -0.0485275
0.119691 0.0459467 -0.0485027
0.119676 0.0459724 -0.0484734
0.119663 0.0459936 -0.0484494
0.119651 0.0460228 -0.0484302
0.119638 0.0460537 -0.04841
0.119629 0.0460831 -0.0484003
0.119617 0.0461231 -0.0483871
0.119611 0.0461499 -0.0483854
0.139124 0.0505872 -0.0458849
0.139404 0.050092 -0.0460891
0.139421 0.0500851 -0.0460793
0.13938 0.0501302 -0.0459829
0.139532 0.0500614 -0.0460263
0.139579 0.0500664 -0.0460095
0.139535 0.0501204 -0.0459093
0.139208 0.0506684 -0.0456117
0.139255 0.0506759 -0.0455781
0.139231 0.0503169 -0.0460523
0.139244 0.0502764 -0.0460123
0.139181 0.0504091 -0.0458971
0.139352 0.0501307 -0.0461245
0.139378 0.0501114 -0.0461068
0.139338 0.0501539 -0.0460154
0.139267 0.0502411 -0.0459718
0.139313 0.0501823 -0.0461598
0.139303 0.0501863 -0.0460495
0.139341 0.0501458 -0.0461349
0.139226 0.0503661 -0.0457992
0.139199 0.0503849 -0.045847
0.139262 0.0502837 -0.0458598
0.139232 0.0503078 -0.0459038
0.139299 0.0502125 -0.0459325
0.139311 0.0501878 -0.0461628
0.139292 0.0502366 -0.0461891
0.139289 0.0502435 -0.0461929
0.139115 0.0506608 -0.0457562
0.139137 0.0506606 -0.0457022
0.139174 0.0504374 -0.0459475
0.139127 0.0505738 -0.0458283
0.139381 0.0504277 -0.0456236
0.139371 0.0504584 -0.0456136
0.139318 0.0504496 -0.0456339
0.139356 0.0505106 -0.0455967
0.139284 0.05056 -0.0455976
0.139338 0.05057 -0.0455775
0.139326 0.0506099 -0.0455646
0.139309 0.0506862 -0.0455597
0.139311 0.0506782 -0.0455602
0.139237 0.0505551 -0.0456308
0.139196 0.050554 -0.045672
0.139227 0.0504499 -0.0457062
0.139193 0.0504579 -0.0457523
0.139168 0.0504709 -0.045803
0.139481 0.0501108 -0.0459276
0.139524 0.0500622 -0.0460296
0.139532 0.050124 -0.0459026
0.139438 0.050176 -0.0458351
0.139511 0.0501507 -0.045853
0.139492 0.0501852 -0.0458169
0.139396 0.0502554 -0.045754
0.139469 0.0502273 -0.0457728
0.139449 0.0502641 -0.0457341
0.139438 0.0502856 -0.0457116
0.139355 0.0503472 -0.0456863
0.139409 0.0503568 -0.0456675
0.139409 0.0503568 -0.0456675
0.139465 0.0500684 -0.0460557
0.139429 0.0501157 -0.0459533
0.13934 0.0501918 -0.0458958
0.139386 0.0501795 -0.0458629
0.1393 0.0502667 -0.0458193
0.139345 0.0502572 -0.0457836
0.139262 0.0503533 -0.0457556
0.139306 0.050347 -0.0457175
0.13927 0.0504471 -0.0456663
0.139168 0.0506632 -0.0456536
0.139163 0.0505569 -0.0457197
0.13914 0.0505636 -0.0457725
0.139412 0.0507063 -0.0455242
0.139414 0.0506984 -0.0455246
0.139427 0.0506359 -0.0455285
0.139441 0.0505905 -0.0455426
0.13946 0.0505309 -0.0455611
0.139476 0.0504787 -0.0455773
0.139483 0.050455 -0.0455847
0.139515 0.0503781 -0.0456321
0.139515 0.0503781 -0.0456321
0.139547 0.0503012 -0.0456795
0.139556 0.0502846 -0.0456969
0.139577 0.050248 -0.0457353
0.139601 0.0502062 -0.0457791
0.139618 0.0501759 -0.0458109
0.139643 0.0501464 -0.0458649
0.139646 0.0501428 -0.0458715
0.139692 0.0500887 -0.0459707
0.139578 0.0507438 -0.0455132
0.139523 0.0507301 -0.0455041
0.139631 0.0507577 -0.0455331
0.139773 0.0507147 -0.0456628
0.139743 0.0506948 -0.0456175
0.1398 0.0505306 -0.0456854
0.139704 0.0506744 -0.0455795
0.139679 0.0507714 -0.0455634
0.139658 0.0506541 -0.0455503
0.139733 0.0505819 -0.0456096
0.139689 0.0505553 -0.0455825
0.139765 0.0504963 -0.0456531
0.139724 0.0504638 -0.0456289
0.139867 0.0503987 -0.0457993
0.139886 0.0504456 -0.0458281
0.139825 0.0505654 -0.0457245
0.139859 0.0501814 -0.0459332
0.139882 0.0502103 -0.0459343
0.139842 0.050253 -0.0458428
0.139904 0.0502392 -0.0459354
0.139876 0.0502989 -0.0458533
0.139914 0.0502584 -0.0459387
0.139936 0.0503047 -0.0459465
0.139569 0.0503891 -0.0456133
0.139611 0.0502977 -0.0456804
0.139655 0.0502187 -0.0457608
0.139738 0.050102 -0.0459556
0.1397 0.0501539 -0.0458525
0.139802 0.0501348 -0.0459401
0.139842 0.0501678 -0.0459353
0.1398 0.0502127 -0.0458393
0.139746 0.0501057 -0.0459539
0.139752 0.0501793 -0.0458426
0.139757 0.0502738 -0.0457529
0.139801 0.0503111 -0.0457608
0.139761 0.0503819 -0.0456889
0.139838 0.0503533 -0.0457765
0.139801 0.0504195 -0.0457092
0.139466 0.0507172 -0.045506
0.139496 0.0506015 -0.0455253
0.13953 0.0504912 -0.0455613
0.139606 0.0506347 -0.0455314
0.139552 0.050617 -0.045523
0.139639 0.0505308 -0.0455652
0.139585 0.0505092 -0.0455581
0.139676 0.0504345 -0.0456141
0.139623 0.0504093 -0.0456089
0.139664 0.0503199 -0.0456744
0.139952 0.0503738 -0.0459659
0.139708 0.0502427 -0.045753
0.139715 0.0503483 -0.0456772
0.139938 0.0503109 -0.0459483
0.13995 0.050366 -0.0459637
0.141963 0.0500047 -0.0463072
0.142058 0.0499246 -0.0462751
0.141442 0.0502839 -0.0464848
0.14104 0.0504214 -0.0466217
0.141519 0.0502573 -0.0464583
0.142357 0.049672 -0.0461736
0.142571 0.0494129 -0.0461015
0.142688 0.0492699 -0.0460617
0.142954 0.0487879 -0.0459723
0.14313 0.048301 -0.0459302
0.143121 0.0483118 -0.0459167
0.143124 0.0483002 -0.0459157
0.142946 0.0488115 -0.0459751
0.140757 0.0504612 -0.0467182
0.141354 0.0506002 -0.0484137
0.141278 0.0506068 -0.0483933
0.140977 0.0506121 -0.0483548
0.141152 0.050609 -0.0483773
0.14054 0.0504918 -0.0467923
0.147655 0.0482767 -0.0443837
0.146896 0.0483231 -0.0446432
0.144239 0.04837 -0.045551
0.144857 0.048374 -0.0453398
0.145949 0.048381 -0.0449667
0.147852 0.0502206 -0.0429035
0.148131 0.0497254 -0.0431077
0.148149 0.0497185 -0.0430979
0.148107 0.0497636 -0.0430015
0.148259 0.0496948 -0.0430449
0.148306 0.0496998 -0.0430281
0.148262 0.0497538 -0.0429279
0.147936 0.0503018 -0.0426303
0.147982 0.0503093 -0.0425966
0.147958 0.0499503 -0.0430709
0.147972 0.0499098 -0.0430309
0.147908 0.0500425 -0.0429157
0.148079 0.0497641 -0.0431431
0.148105 0.0497447 -0.0431254
0.148065 0.0497873 -0.043034
0.147995 0.0498745 -0.0429904
0.14804 0.0498156 -0.0431784
0.14803 0.0498197 -0.0430681
0.148068 0.0497792 -0.0431535
0.147953 0.0499995 -0.0428178
0.147926 0.0500183 -0.0428656
0.147989 0.0499171 -0.0428784
0.147959 0.0499412 -0.0429224
0.148027 0.0498459 -0.0429511
0.148038 0.0498211 -0.0431814
0.148019 0.04987 -0.0432077
0.148016 0.0498769 -0.0432114
0.147843 0.0502941 -0.0427748
0.147864 0.050294 -0.0427209
0.147901 0.0500708 -0.0429661
0.147854 0.0502072 -0.0428469
0.148045 0.0500829 -0.0426525
0.148099 0.0500918 -0.0426322
0.148083 0.050144 -0.0426153
0.148012 0.0501934 -0.0426162
0.148065 0.0502034 -0.0425961
0.148053 0.0502432 -0.0425832
0.148036 0.0503195 -0.0425783
0.148038 0.0503116 -0.0425788
0.147964 0.0501885 -0.0426494
0.147923 0.0501874 -0.0426906
0.147954 0.0500833 -0.0427248
0.14792 0.0500913 -0.0427709
0.147895 0.0501043 -0.0428216
0.148208 0.0497442 -0.0429462
0.148251 0.0496956 -0.0430482
0.148259 0.0497574 -0.0429212
0.148165 0.0498094 -0.0428537
0.148238 0.0497841 -0.0428716
0.148219 0.0498186 -0.0428355
0.148123 0.0498888 -0.0427726
0.148196 0.0498606 -0.0427914
0.148176 0.0498975 -0.0427527
0.148165 0.049919 -0.0427302
0.148082 0.0499806 -0.0427049
0.148136 0.0499902 -0.0426861
0.148108 0.0500611 -0.0426422
0.148192 0.0497018 -0.0430743
0.148156 0.0497491 -0.0429719
0.148067 0.0498252 -0.0429144
0.148114 0.0498129 -0.0428815
0.148027 0.0499001 -0.0428379
0.148072 0.0498906 -0.0428022
0.147989 0.0499867 -0.0427742
0.148033 0.0499804 -0.0427361
0.147997 0.0500805 -0.0426848
0.147896 0.0502966 -0.0426722
0.14789 0.0501902 -0.0427383
0.147867 0.050197 -0.0427911
0.148139 0.0503397 -0.0425428
0.148141 0.0503318 -0.0425432
0.148155 0.0502693 -0.0425471
0.148169 0.0502239 -0.0425612
0.148187 0.0501643 -0.0425797
0.148203 0.0501121 -0.0425959
0.14821 0.0500884 -0.0426033
0.148242 0.0500115 -0.0426507
0.148136 0.0499902 -0.0426861
0.148274 0.0499346 -0.0426981
0.148284 0.049918 -0.0427155
0.148304 0.0498814 -0.0427539
0.148328 0.0498396 -0.0427977
0.148346 0.0498093 -0.0428295
0.14837 0.0497798 -0.0428835
0.148374 0.0497762 -0.0428901
0.148419 0.0497221 -0.0429893
0.148305 0.0503772 -0.0425318
0.14825 0.0503635 -0.0425227
0.148358 0.0503911 -0.0425517
0.1485 0.0503481 -0.0426814
0.14847 0.0503282 -0.0426361
0.148527 0.0501639 -0.042704
0.148431 0.0503077 -0.0425981
0.148406 0.0504048 -0.042582
0.148385 0.0502875 -0.042569
0.14846 0.0502153 -0.0426282
0.148416 0.0501887 -0.0426011
0.148492 0.0501297 -0.0426717
0.148451 0.0500972 -0.0426475
0.148594 0.0500321 -0.0428179
0.148613 0.050079 -0.0428467
0.148552 0.0501988 -0.0427431
0.148586 0.0498148 -0.0429518
0.148609 0.0498437 -0.0429529
0.148569 0.0498864 -0.0428614
0.148631 0.0498726 -0.042954
0.148604 0.0499323 -0.0428719
0.148641 0.0498918 -0.0429573
0.148663 0.049938 -0.0429651
0.148338 0.049931 -0.042699
0.148382 0.0498521 -0.0427794
0.148465 0.0497354 -0.0429742
0.148427 0.0497873 -0.0428711
0.148529 0.0497681 -0.0429587
0.148569 0.0498011 -0.0429538
0.148527 0.0498461 -0.0428579
0.148473 0.0497391 -0.0429725
0.148479 0.0498127 -0.0428612
0.148484 0.0499072 -0.0427715
0.148528 0.0499445 -0.0427794
0.148488 0.0500153 -0.0427075
0.148565 0.0499867 -0.0427951
0.148528 0.0500529 -0.0427278
0.148193 0.0503506 -0.0425246
0.148223 0.0502349 -0.0425439
0.148257 0.0501246 -0.0425799
0.148296 0.0500225 -0.0426319
0.148242 0.0500115 -0.0426507
0.148334 0.0502681 -0.04255
0.148279 0.0502504 -0.0425416
0.148366 0.0501642 -0.0425838
0.148313 0.0501426 -0.0425767
0.148403 0.0500679 -0.0426327
0.14835 0.0500427 -0.0426275
0.148391 0.0499533 -0.042693
0.148679 0.0500072 -0.0429845
0.148435 0.049876 -0.0427716
0.148442 0.0499817 -0.0426958
0.148665 0.0499443 -0.0429669
0.148678 0.0499993 -0.0429823
0.151843 0.0475214 -0.042955
0.151013 0.0477182 -0.043238
0.1504 0.0478637 -0.0434471
0.152801 0.0467929 -0.0414803
0.152816 0.0467772 -0.0413813
0.152832 0.0468333 -0.0413742
0.153246 0.0467033 -0.0408257
0.153221 0.0466511 -0.0408169
0.153143 0.0469822 -0.0413077
0.153086 0.0469789 -0.041291
0.153167 0.0469342 -0.0411266
0.153057 0.04701 -0.0414738
0.153057 0.04701 -0.0414738
0.152987 0.0469941 -0.0414758
0.152946 0.0469734 -0.0414784
0.152954 0.0469597 -0.0413709
0.153031 0.0469646 -0.041277
0.153031 0.0470039 -0.0414746
0.153007 0.0469834 -0.0413749
0.153 0.0469969 -0.0414754
0.153072 0.0468887 -0.0410761
0.153118 0.0469165 -0.0410989
0.153018 0.0469159 -0.0411672
0.153068 0.0469422 -0.0411842
0.152978 0.0469398 -0.0412664
0.153199 0.0469739 -0.041327
0.15319 0.0469798 -0.0413522
0.153175 0.0469997 -0.041475
0.153144 0.0470065 -0.0414742
0.153133 0.0470088 -0.0414739
0.153117 0.047009 -0.0414739
0.153086 0.0470095 -0.0414738
0.153336 0.0468257 -0.0409071
0.153304 0.0467924 -0.0408715
0.153292 0.0468795 -0.0409975
0.15333 0.0468914 -0.0410407
0.153216 0.0469413 -0.0411583
0.153463 0.0468544 -0.0410303
0.153365 0.0468925 -0.0410865
0.153365 0.0468926 -0.0410866
0.152963 0.0467561 -0.0410456
0.152946 0.0467004 -0.0410527
0.153004 0.0466732 -0.04097
0.153037 0.0467232 -0.0409555
0.153017 0.0466683 -0.0409595
0.153057 0.046652 -0.0409247
0.153124 0.0466879 -0.0408788
0.153105 0.0466328 -0.0408838
0.153141 0.0466187 -0.0408537
0.153203 0.0465962 -0.040823
0.153196 0.0465988 -0.0408267
0.15315 0.0467396 -0.0408861
0.153182 0.0467863 -0.0409022
0.1531 0.0468201 -0.0409745
0.153139 0.0468585 -0.0409954
0.153181 0.046888 -0.0410233
0.152801 0.0467953 -0.0415006
0.152822 0.0468465 -0.0414942
0.152823 0.0468499 -0.0414938
0.152825 0.0468538 -0.0414933
0.152866 0.0469129 -0.0414859
0.152856 0.0468985 -0.0414877
0.152864 0.0468829 -0.0413706
0.152852 0.0468918 -0.0414885
0.152817 0.0467759 -0.0413731
0.152829 0.046763 -0.0412917
0.152859 0.0468117 -0.0412578
0.15284 0.0467565 -0.0412639
0.152903 0.0467858 -0.0411473
0.152863 0.0467427 -0.0412049
0.152884 0.0467305 -0.0411527
0.152895 0.0467239 -0.0411243
0.152945 0.0467006 -0.0410534
0.152924 0.0469624 -0.0414797
0.152898 0.04694 -0.0414825
0.152905 0.0469256 -0.0413695
0.15289 0.0469331 -0.0414834
0.152931 0.0469049 -0.0412595
0.152891 0.0468616 -0.0412566
0.152973 0.04688 -0.0411552
0.152934 0.046836 -0.0411485
0.153029 0.0468515 -0.0410594
0.152993 0.0468067 -0.0410491
0.153065 0.0467743 -0.0409611
0.15329 0.0469248 -0.0411578
0.153266 0.0469368 -0.0411945
0.153225 0.0469574 -0.0412575
0.153274 0.046751 -0.040844
0.153217 0.0468262 -0.0409267
0.153254 0.0468575 -0.0409589
0.153173 0.0470554 -0.0419223
0.153174 0.0470425 -0.0418179
0.154249 0.04658 -0.0409244
0.154215 0.0466033 -0.0410066
0.154043 0.0466989 -0.0412752
0.154071 0.0466836 -0.0412322
0.153173 0.0464902 -0.0408338
0.153166 0.0464928 -0.0408374
0.153112 0.046512 -0.0408638
0.153075 0.0465263 -0.0408954
0.153028 0.0465448 -0.0409362
0.152986 0.046561 -0.0409717
0.152969 0.0465679 -0.0409871
0.152915 0.0465918 -0.0410643
0.152914 0.0465918 -0.0410645
0.152861 0.0466155 -0.0411411
0.152852 0.0466204 -0.0411644
0.152832 0.0466313 -0.0412163
0.152809 0.0466439 -0.0412763
0.152792 0.0466531 -0.04132
0.152784 0.0466617 -0.0413844
0.152783 0.0466628 -0.0413927
0.152768 0.0466786 -0.0415123
0.152966 0.0463447 -0.0419059
0.152965 0.0463566 -0.0420385
0.152963 0.0463767 -0.0422638
0.152963 0.0463856 -0.0423649
0.153175 0.0462092 -0.0411463
0.153156 0.046217 -0.0411633
0.153089 0.0462442 -0.0412225
0.153057 0.0462585 -0.0412685
0.153026 0.0462729 -0.0413145
0.154238 0.0458448 -0.0411627
0.154383 0.0457643 -0.0409165
0.154398 0.0457542 -0.0408779
0.154219 0.045854 -0.0411851
0.152993 0.046291 -0.0414006
0.152983 0.0462967 -0.0414278
0.152968 0.0463122 -0.0415479
0.15294 0.0463117 -0.04138
0.153144 0.0463324 -0.0408908
0.15278 0.0464947 -0.0414157
0.152802 0.0464424 -0.0414264
0.152826 0.0464255 -0.0413226
0.152768 0.0466078 -0.041398
0.153123 0.0462291 -0.0411141
0.153097 0.0462509 -0.0410676
0.152974 0.046302 -0.0411968
0.153147 0.0462881 -0.0409278
0.153076 0.0462818 -0.0410236
0.153156 0.0462511 -0.0409713
0.152918 0.0463796 -0.0411335
0.152942 0.046337 -0.0411637
0.152984 0.0463515 -0.0410528
0.153004 0.0463106 -0.0410882
0.153061 0.0463208 -0.0409837
0.152794 0.0464556 -0.0415331
0.152802 0.0464386 -0.0415348
0.152834 0.0463958 -0.0414379
0.152856 0.04638 -0.0413408
0.152882 0.0463576 -0.041543
0.152909 0.0463374 -0.0415451
0.152895 0.0463416 -0.0413601
0.153012 0.0462756 -0.0412314
0.152827 0.0464088 -0.0415377
0.15284 0.0463934 -0.0415393
0.152851 0.0463805 -0.0415406
0.152867 0.0463682 -0.0415419
0.152898 0.0465372 -0.0410703
0.152839 0.046565 -0.0411718
0.152795 0.0465887 -0.0412819
0.15276 0.0466244 -0.0415172
0.152761 0.0466484 -0.041515
0.152768 0.0465505 -0.0414061
0.152795 0.0465319 -0.0412927
0.152805 0.0464768 -0.0413065
0.152847 0.0464546 -0.0412028
0.152865 0.0464044 -0.0412242
0.152893 0.0463603 -0.0412486
0.153156 0.0464356 -0.0408404
0.153059 0.0464717 -0.0409028
0.152972 0.0465059 -0.04098
0.153147 0.0463822 -0.0408613
0.153053 0.0463667 -0.0409497
0.153052 0.0464177 -0.0409224
0.152972 0.046399 -0.0410224
0.152968 0.0464511 -0.0409978
0.152902 0.0464285 -0.0411073
0.152896 0.0464817 -0.041086
0.152838 0.0465088 -0.0411851
0.15293 0.0463284 -0.0415461
0.152915 0.0463351 -0.0415453
0.15276 0.0466218 -0.0415174
0.152758 0.0465731 -0.0415219
0.152759 0.0465644 -0.0415227
0.152772 0.0465024 -0.0415286
0.152791 0.0464629 -0.0415324
0.151157 0.0469093 -0.043191
0.151736 0.0467704 -0.0429937
0.149505 0.0472666 -0.0437547
0.150321 0.0471099 -0.0434761
0.150887 0.0394482 -0.0433054
0.152799 0.0407585 -0.0426482
0.152307 0.0404092 -0.0428175
0.151595 0.0399046 -0.043062
0.153919 0.0419206 -0.0406767
0.153926 0.0419823 -0.040901
0.153909 0.0419641 -0.0409188
0.153881 0.041947 -0.0408677
0.15395 0.0418401 -0.0406002
0.153976 0.0417957 -0.0405736
0.153741 0.0417405 -0.0412825
0.15373 0.0417276 -0.0412804
0.153742 0.0417776 -0.0411192
0.153662 0.0415998 -0.0412573
0.153657 0.0415762 -0.0412527
0.153657 0.0416031 -0.0411483
0.153668 0.0416262 -0.0412624
0.153699 0.0416903 -0.0412741
0.153709 0.0417365 -0.0410952
0.153767 0.0418189 -0.0409385
0.15367 0.0416312 -0.0412633
0.153672 0.0416562 -0.0411655
0.153679 0.041649 -0.0412666
0.153686 0.0416897 -0.0410709
0.153695 0.0416825 -0.0412727
0.153673 0.0416389 -0.0410473
0.153712 0.0417309 -0.040982
0.1537 0.041683 -0.0409523
0.153749 0.041779 -0.0409011
0.15374 0.0417344 -0.0408658
0.153785 0.0418126 -0.041143
0.153778 0.0418015 -0.0411675
0.153771 0.0417678 -0.0412868
0.153747 0.0417479 -0.0412838
0.153794 0.0418525 -0.0409767
0.153862 0.0419228 -0.0408185
0.153916 0.0419534 -0.0407242
0.153831 0.0416522 -0.0407004
0.153863 0.0416067 -0.0406866
0.153895 0.0416392 -0.0406541
0.153899 0.0417221 -0.0406294
0.153933 0.0416775 -0.0406158
0.153958 0.0417037 -0.0405897
0.154011 0.0417513 -0.0405615
0.154005 0.0417459 -0.0405647
0.153931 0.0418823 -0.0406349
0.153859 0.0418129 -0.0406876
0.153851 0.0418546 -0.0407267
0.15379 0.041792 -0.0407902
0.153852 0.0418916 -0.0407709
0.153796 0.041833 -0.0408303
0.153708 0.0413614 -0.0412067
0.153713 0.0413938 -0.0410895
0.153681 0.0414084 -0.0412175
0.153681 0.0414403 -0.041101
0.15368 0.0414106 -0.041218
0.153677 0.0414155 -0.0412191
0.153656 0.0414839 -0.0412339
0.153662 0.0414644 -0.0412297
0.153663 0.0414931 -0.0411154
0.153664 0.0414588 -0.0412285
0.153713 0.0413961 -0.0410814
0.153715 0.0414079 -0.0410384
0.153698 0.0414805 -0.040988
0.153731 0.041435 -0.0409768
0.153729 0.04153 -0.0408818
0.153746 0.0414605 -0.0409189
0.153762 0.0414872 -0.0408581
0.153807 0.0415426 -0.0407742
0.153774 0.0415876 -0.0407851
0.153808 0.0415431 -0.0407736
0.153845 0.0415888 -0.0407045
0.153653 0.0415581 -0.0412492
0.153655 0.0415201 -0.0412414
0.153655 0.041548 -0.0411314
0.153655 0.041513 -0.0412399
0.153671 0.0415858 -0.0410251
0.153679 0.0415323 -0.0410051
0.1537 0.0416322 -0.0409251
0.15371 0.0415806 -0.0409013
0.153741 0.0416864 -0.0408341
0.153753 0.0416368 -0.0408068
0.153809 0.0416998 -0.0407241
0.153857 0.041911 -0.0409707
0.153832 0.04188 -0.0410165
0.153808 0.0418501 -0.0410606
0.153875 0.0417681 -0.0406548
0.153795 0.0417471 -0.0407544
0.154909 0.0428501 -0.0407101
0.154887 0.0428102 -0.0407867
0.154784 0.0426636 -0.0410025
0.154778 0.0426549 -0.0410153
0.153793 0.0416709 -0.0417692
0.153803 0.0416266 -0.0419908
0.153787 0.041697 -0.0416388
0.154075 0.0416637 -0.0405398
0.154069 0.0416584 -0.0405429
0.154026 0.041619 -0.040566
0.153997 0.0415893 -0.0405949
0.15396 0.0415508 -0.0406324
0.153928 0.0415173 -0.040665
0.153914 0.0415028 -0.0406791
0.153873 0.0414526 -0.0407519
0.153833 0.0414026 -0.0408244
0.153873 0.0414526 -0.040752
0.153779 0.0412652 -0.0411828
0.153784 0.0413004 -0.0410665
0.153784 0.0413028 -0.0410584
0.153787 0.0413216 -0.0409962
0.153798 0.0413416 -0.0409539
0.153814 0.0413687 -0.0408963
0.153827 0.0413922 -0.0408465
0.154353 0.0414323 -0.0407572
0.154336 0.0414139 -0.0407747
0.154283 0.041358 -0.0408277
0.154258 0.041326 -0.040873
0.154944 0.0418525 -0.0409323
0.155047 0.0420073 -0.0407004
0.155057 0.0420267 -0.0406637
0.15493 0.0418341 -0.040954
0.154233 0.0412935 -0.0409188
0.154212 0.0412546 -0.0409991
0.154204 0.0412412 -0.0410266
0.154199 0.0412051 -0.041142
0.15422 0.0411267 -0.041478
0.154226 0.041103 -0.0415803
0.15416 0.0412289 -0.0409773
0.154195 0.041541 -0.0405448
0.154152 0.041578 -0.0405313
0.154073 0.0412541 -0.0408579
0.154048 0.0412103 -0.0409466
0.154105 0.0412144 -0.04096
0.154238 0.0415097 -0.040568
0.154299 0.0414072 -0.0407258
0.154259 0.0414102 -0.0406835
0.154162 0.0413018 -0.0408036
0.154215 0.0414219 -0.0406469
0.15428 0.0414855 -0.0406004
0.154168 0.041442 -0.0406177
0.154158 0.0413612 -0.0407062
0.154107 0.0413773 -0.040681
0.15411 0.0413048 -0.040777
0.154056 0.0413173 -0.0407567
0.15399 0.0412168 -0.0409378
0.154017 0.0412635 -0.040843
0.153967 0.0411525 -0.0411447
0.153975 0.041151 -0.0411438
0.153976 0.0411784 -0.0410387
0.153999 0.0411466 -0.0411412
0.154035 0.0411742 -0.0410411
0.154092 0.041157 -0.0411377
0.154099 0.041159 -0.0411378
0.154145 0.0411734 -0.0411382
0.154212 0.0413085 -0.0408351
0.154034 0.0411489 -0.0411396
0.154044 0.0411496 -0.0411391
0.154075 0.0411517 -0.0411376
0.153908 0.0414072 -0.040739
0.153864 0.0413479 -0.0408354
0.153881 0.0412611 -0.0409351
0.153934 0.0412341 -0.040934
0.153962 0.0412829 -0.0408342
0.153834 0.0412966 -0.0409412
0.153806 0.0412335 -0.0411737
0.153816 0.0412255 -0.0411712
0.153819 0.0412544 -0.0410537
0.153919 0.0411938 -0.0410401
0.153866 0.0412196 -0.0410452
0.153819 0.0412236 -0.0411706
0.153865 0.0411881 -0.0411594
0.153865 0.041188 -0.0411594
0.153912 0.0411669 -0.0411515
0.15393 0.0411592 -0.0411486
0.154111 0.0416192 -0.0405278
0.154033 0.0415446 -0.0405836
0.153965 0.0414733 -0.0406545
0.154121 0.04147 -0.0405971
0.154076 0.0415047 -0.0405856
0.154057 0.0414022 -0.0406638
0.154009 0.0414347 -0.0406549
0.154004 0.0413394 -0.0407434
0.153953 0.0413697 -0.0407374
0.153911 0.0413115 -0.0408317
0.154152 0.041178 -0.0411387
0.154148 0.0411755 -0.0411384
0.152448 0.0395998 -0.0427714
0.153155 0.0400985 -0.0425284
0.151926 0.0392312 -0.042951
0.150976 0.0363487 -0.0418769
0.150879 0.0368455 -0.0422065
0.150859 0.0368524 -0.0422097
0.150833 0.0368067 -0.0421085
0.150739 0.036876 -0.0422352
0.150692 0.036871 -0.0422508
0.150665 0.0368164 -0.0421451
0.150742 0.0362662 -0.0417126
0.150685 0.0362587 -0.0417148
0.150993 0.0366201 -0.0420732
0.150958 0.0366604 -0.0420494
0.150938 0.036527 -0.0419203
0.150942 0.0368069 -0.0422032
0.15091 0.0368262 -0.0422049
0.150886 0.0367831 -0.0421084
0.150915 0.0366955 -0.0420313
0.150994 0.0367555 -0.0422076
0.150934 0.0367508 -0.0421144
0.150957 0.0367918 -0.0422045
0.150842 0.0365695 -0.0418701
0.150893 0.0365509 -0.0418913
0.150851 0.0366523 -0.0419396
0.150901 0.0366284 -0.0419563
0.150866 0.036724 -0.0420197
0.150998 0.03675 -0.0422086
0.151029 0.0367013 -0.0422181
0.151033 0.0366943 -0.0422194
0.150904 0.0362745 -0.0417699
0.150854 0.0362743 -0.0417405
0.150975 0.0364989 -0.0419559
0.150939 0.0363618 -0.0418335
0.150669 0.0364854 -0.0417961
0.150614 0.0364765 -0.0418128
0.150616 0.0364242 -0.0417901
0.150673 0.0363747 -0.0417474
0.150619 0.0363647 -0.0417642
0.150621 0.0363247 -0.0417468
0.150631 0.0362484 -0.0417332
0.15063 0.0362563 -0.0417347
0.150731 0.0363797 -0.0417445
0.150789 0.0363809 -0.0417519
0.150785 0.0364853 -0.0417977
0.15084 0.0364775 -0.0418132
0.150891 0.0364647 -0.041838
0.150719 0.036826 -0.0421262
0.150747 0.0368752 -0.0422332
0.150663 0.0368127 -0.042138
0.150697 0.0367602 -0.042027
0.15065 0.0367857 -0.0420858
0.150643 0.036751 -0.0420459
0.150681 0.0366803 -0.0419375
0.150634 0.0367087 -0.0419973
0.150626 0.0366716 -0.0419547
0.150621 0.03665 -0.0419299
0.150671 0.0365881 -0.0418598
0.150617 0.0365785 -0.0418779
0.150613 0.0365073 -0.0418262
0.15081 0.036869 -0.0422174
0.150776 0.0368211 -0.0421146
0.150811 0.0367445 -0.0420151
0.150754 0.0367567 -0.0420176
0.150796 0.0366691 -0.0419308
0.150739 0.0366786 -0.0419302
0.150787 0.0365821 -0.0418577
0.150729 0.0365884 -0.0418543
0.150727 0.0364879 -0.041792
0.1508 0.0362715 -0.0417212
0.150844 0.0363783 -0.0417696
0.150895 0.0363718 -0.0417973
0.150578 0.0368487 -0.0422896
0.150554 0.036794 -0.0421834
0.150552 0.0367903 -0.0421763
0.150539 0.0367605 -0.0421184
0.150533 0.03673 -0.0420829
0.150525 0.036688 -0.0420339
0.150518 0.0366511 -0.041991
0.150515 0.0366344 -0.0419715
0.150512 0.0365572 -0.0419149
0.150508 0.03648 -0.0418582
0.150509 0.0364562 -0.0418481
0.150512 0.0364039 -0.0418257
0.150516 0.0363442 -0.0418001
0.150518 0.0362987 -0.0417807
0.150527 0.0362361 -0.0417696
0.150528 0.0362282 -0.0417682
0.15039 0.036191 -0.0418616
0.150428 0.0362045 -0.0418201
0.15036 0.0361773 -0.0419096
0.150327 0.0362212 -0.042099
0.150323 0.0362408 -0.0420443
0.15032 0.0364055 -0.042132
0.150331 0.036261 -0.0419903
0.150341 0.0361638 -0.0419627
0.150349 0.036281 -0.041939
0.150326 0.0363537 -0.0420314
0.150344 0.03638 -0.0419829
0.150327 0.0364396 -0.0420853
0.150345 0.0364718 -0.0420404
0.150336 0.0365381 -0.0422624
0.150338 0.0364914 -0.0422975
0.150323 0.036371 -0.0421788
0.150424 0.0367561 -0.0423624
0.150407 0.0367272 -0.0423773
0.150382 0.036684 -0.042281
0.150389 0.0366984 -0.0423923
0.150361 0.0366382 -0.0423106
0.150384 0.0366792 -0.0424006
0.150371 0.0366331 -0.0424208
0.150466 0.0366381 -0.0420111
0.15048 0.0367175 -0.0421013
0.150533 0.0368354 -0.0423059
0.1505 0.0367829 -0.0422013
0.150473 0.0368027 -0.042333
0.150438 0.0367698 -0.0423538
0.150413 0.0367242 -0.0422522
0.150526 0.0368317 -0.042309
0.150453 0.0367576 -0.0422253
0.150394 0.0366626 -0.0421579
0.150364 0.0366254 -0.0421913
0.150352 0.0365542 -0.0421105
0.150345 0.0365834 -0.0422266
0.150333 0.0365167 -0.0421509
0.150474 0.0362173 -0.0417868
0.150462 0.0363332 -0.0418197
0.150457 0.0364437 -0.0418687
0.150458 0.0365462 -0.0419329
0.150512 0.0365572 -0.0419149
0.150378 0.0363002 -0.0418925
0.150416 0.0363178 -0.0418523
0.150373 0.0364044 -0.0419387
0.150411 0.0364259 -0.0419002
0.150374 0.0365009 -0.0419992
0.150412 0.036526 -0.0419629
0.150419 0.0366159 -0.0420394
0.15037 0.0365641 -0.0424464
0.150433 0.0366936 -0.0421276
0.150381 0.0365876 -0.0420729
0.150371 0.0366269 -0.0424231
0.15037 0.0365719 -0.0424435
0.145294 0.0360624 -0.0452269
0.146352 0.0364192 -0.0448642
0.14693 0.0366502 -0.044666
0.149507 0.0378038 -0.0437818
0.148814 0.0374719 -0.0440196
0.147951 0.0370582 -0.044316
0.144396 0.0335733 -0.0455245
0.145296 0.0355432 -0.0452112
0.145289 0.0360507 -0.0452121
0.145288 0.0360627 -0.0452124
0.145296 0.0355181 -0.0452111
0.145213 0.0349928 -0.0452412
0.145152 0.0348146 -0.0452626
0.145041 0.034492 -0.0453012
0.144849 0.0341426 -0.0453681
0.14446 0.0336277 -0.0455026
0.144788 0.0340319 -0.0453893
0.143626 0.0330369 -0.0457892
0.144202 0.0329331 -0.0473468
0.143818 0.0331479 -0.0457233
0.144273 0.0329604 -0.0473621
0.14446 0.0330332 -0.0474027
0.144068 0.0332924 -0.0456374
0.144505 0.0330509 -0.0474126
0.14296 0.0326924 -0.0446271
0.142863 0.0331892 -0.0449568
0.142843 0.0331961 -0.0449599
0.142817 0.0331504 -0.0448587
0.142723 0.0332197 -0.0449854
0.142676 0.0332147 -0.045001
0.142649 0.03316 -0.0448953
0.142726 0.0326099 -0.0444628
0.142669 0.0326023 -0.044465
0.142977 0.0329637 -0.0448235
0.142942 0.033004 -0.0447996
0.142922 0.0328707 -0.0446705
0.142926 0.0331506 -0.0449534
0.142894 0.0331699 -0.0449551
0.14287 0.0331267 -0.0448586
0.142899 0.0330392 -0.0447815
0.142978 0.0330991 -0.0449578
0.142918 0.0330945 -0.0448646
0.142941 0.0331355 -0.0449547
0.142827 0.0329132 -0.0446203
0.142877 0.0328946 -0.0446416
0.142835 0.032996 -0.0446898
0.142886 0.032972 -0.0447065
0.14285 0.0330677 -0.0447699
0.142982 0.0330936 -0.0449588
0.143013 0.0330449 -0.0449683
0.143017 0.033038 -0.0449697
0.142888 0.0326182 -0.0445201
0.142838 0.032618 -0.0444907
0.142959 0.0328426 -0.0447061
0.142923 0.0327055 -0.0445837
0.142597 0.032851 -0.0445764
0.142598 0.0328202 -0.044563
0.142653 0.0328291 -0.0445463
0.142601 0.0327679 -0.0445403
0.142657 0.0327184 -0.0444976
0.142603 0.0327083 -0.0445144
0.142605 0.0326684 -0.0444971
0.142615 0.0325921 -0.0444835
0.142614 0.0326 -0.0444849
0.142715 0.0327233 -0.0444947
0.142773 0.0327246 -0.0445021
0.142769 0.0328289 -0.0445479
0.142824 0.0328211 -0.0445634
0.142875 0.0328083 -0.0445882
0.142703 0.0331696 -0.0448765
0.142731 0.0332189 -0.0449834
0.142647 0.0331564 -0.0448882
0.142681 0.0331039 -0.0447772
0.142634 0.0331294 -0.044836
0.142627 0.0330947 -0.0447961
0.142665 0.033024 -0.0446877
0.142618 0.0330524 -0.0447475
0.14261 0.0330153 -0.0447049
0.142606 0.0329937 -0.0446801
0.142655 0.0329318 -0.0446101
0.142601 0.0329222 -0.0446282
0.142601 0.0329222 -0.0446282
0.142794 0.0332127 -0.0449677
0.14276 0.0331648 -0.0448648
0.142796 0.0330882 -0.0447653
0.142739 0.0331004 -0.0447678
0.14278 0.0330128 -0.044681
0.142723 0.0330223 -0.0446804
0.142771 0.0329258 -0.0446079
0.142713 0.032932 -0.0446045
0.142711 0.0328316 -0.0445422
0.142784 0.0326152 -0.0444714
0.142828 0.0327219 -0.0445198
0.142879 0.0327155 -0.0445475
0.142512 0.0325719 -0.0445184
0.142511 0.0325798 -0.0445198
0.142502 0.0326423 -0.0445309
0.1425 0.0326878 -0.0445504
0.142496 0.0327475 -0.0445759
0.142494 0.0327999 -0.0445983
0.142492 0.0328236 -0.0446084
0.142496 0.0329008 -0.0446651
0.142496 0.0329009 -0.0446651
0.142499 0.0329781 -0.0447217
0.142503 0.0329948 -0.0447412
0.14251 0.0330316 -0.0447841
0.142517 0.0330737 -0.0448331
0.142523 0.0331041 -0.0448686
0.142536 0.033134 -0.0449265
0.142538 0.0331376 -0.0449336
0.142562 0.0331924 -0.0450398
0.142374 0.0325347 -0.0446118
0.142412 0.0325482 -0.0445704
0.142344 0.0325209 -0.0446598
0.142311 0.0325649 -0.0448492
0.142308 0.0325845 -0.0447945
0.142304 0.0327492 -0.0448822
0.142315 0.0326047 -0.0447405
0.142325 0.0325075 -0.0447129
0.142334 0.0326247 -0.0446892
0.14231 0.0326973 -0.0447816
0.142328 0.0327237 -0.0447331
0.142311 0.0327833 -0.0448355
0.142329 0.0328155 -0.0447906
0.14232 0.0328818 -0.0450127
0.142322 0.032835 -0.0450477
0.142308 0.0327146 -0.044929
0.142408 0.0330997 -0.0451126
0.142391 0.0330709 -0.0451275
0.142366 0.0330277 -0.0450312
0.142373 0.033042 -0.0451425
0.142345 0.0329819 -0.0450608
0.142368 0.0330229 -0.0451509
0.142355 0.0329767 -0.0451711
0.142442 0.0328898 -0.0446831
0.14245 0.0329817 -0.0447613
0.142464 0.0330612 -0.0448516
0.142517 0.0331791 -0.0450561
0.142484 0.0331265 -0.0449515
0.142457 0.0331464 -0.0450832
0.142422 0.0331134 -0.045104
0.142397 0.0330679 -0.0450024
0.14251 0.0331754 -0.0450592
0.142437 0.0331012 -0.0449756
0.142378 0.0330062 -0.0449082
0.142348 0.0329691 -0.0449416
0.142336 0.0328979 -0.0448607
0.142329 0.0329271 -0.0449768
0.142317 0.0328604 -0.0449011
0.142458 0.032561 -0.044537
0.142446 0.0326769 -0.0445699
0.142441 0.0327874 -0.0446189
0.142362 0.0326439 -0.0446427
0.142401 0.0326615 -0.0446025
0.142357 0.032748 -0.0446889
0.142395 0.0327695 -0.0446504
0.142358 0.0328446 -0.0447494
0.142396 0.0328697 -0.0447131
0.142404 0.0329596 -0.0447896
0.142354 0.0329077 -0.0451966
0.142417 0.0330373 -0.0448778
0.142365 0.0329313 -0.0448231
0.142355 0.0329705 -0.0451733
0.142355 0.0329156 -0.0451937
0.142775 0.0326931 -0.0480166
0.142198 0.0328228 -0.0462781
0.14154 0.0329929 -0.0465024
0.141802 0.0328899 -0.0464131
0.140937 0.0333201 -0.0467073
0.141288 0.0330919 -0.0465883
0.14082 0.0333961 -0.046747
0.140423 0.0337868 -0.0468818
0.140418 0.0337909 -0.0468832
0.139853 0.0348387 -0.0470734
0.139857 0.0348378 -0.0470885
0.139869 0.0347884 -0.0470681
0.140045 0.034382 -0.0470092
0.140097 0.0342611 -0.0469917
0.143075 0.0326851 -0.0476752
0.142857 0.0326841 -0.0479005
0.142344 0.032798 -0.0462282
0.133631 0.0336146 -0.0492198
0.134384 0.0307497 -0.049734
0.134394 0.030759 -0.0497668
0.134002 0.0315183 -0.0490993
0.133706 0.0311089 -0.0480594
0.133702 0.0310901 -0.0480379
0.134095 0.0304832 -0.0487911
0.134664 0.0310677 -0.0506815
0.133734 0.031165 -0.0481659
0.133689 0.0310295 -0.0479685
0.133686 0.0309816 -0.0479338
0.133955 0.030383 -0.0483504
0.133683 0.0309336 -0.0478991
0.133686 0.0308481 -0.0478627
0.133688 0.0308201 -0.0478509
0.133658 0.0308648 -0.0478114
0.133562 0.0313616 -0.048141
0.133541 0.0313685 -0.0481442
0.133515 0.0313227 -0.048043
0.133422 0.031392 -0.0481697
0.133374 0.0313871 -0.0481852
0.133347 0.0313324 -0.0480795
0.133425 0.0307823 -0.0476471
0.133367 0.0307747 -0.0476492
0.133676 0.0311361 -0.0480077
0.133641 0.0311764 -0.0479839
0.13362 0.0310431 -0.0478548
0.133624 0.0313229 -0.0481376
0.133593 0.0313422 -0.0481393
0.133568 0.0312991 -0.0480429
0.133598 0.0312115 -0.0479658
0.133677 0.0312715 -0.048142
0.133617 0.0312668 -0.0480488
0.13364 0.0313078 -0.0481389
0.133525 0.0310856 -0.0478046
0.133576 0.0310669 -0.0478258
0.133534 0.0311683 -0.047874
0.133584 0.0311444 -0.0478908
0.133548 0.03124 -0.0479541
0.13368 0.031266 -0.0481431
0.133711 0.0312173 -0.0481525
0.133716 0.0312104 -0.0481539
0.133587 0.0307905 -0.0477044
0.133537 0.0307904 -0.0476749
0.133657 0.0310149 -0.0478903
0.133622 0.0308778 -0.047768
0.133351 0.0310014 -0.0477306
0.133297 0.0309925 -0.0477473
0.133299 0.0309403 -0.0477246
0.133356 0.0308907 -0.0476819
0.133301 0.0308807 -0.0476987
0.133303 0.0308408 -0.0476813
0.133313 0.0307644 -0.0476677
0.133312 0.0307724 -0.0476691
0.133414 0.0308957 -0.047679
0.133471 0.0308969 -0.0476864
0.133467 0.0310013 -0.0477322
0.133523 0.0309935 -0.0477476
0.133574 0.0309807 -0.0477725
0.133402 0.031342 -0.0480607
0.13343 0.0313912 -0.0481677
0.133346 0.0313288 -0.0480725
0.133379 0.0312762 -0.0479615
0.133332 0.0313018 -0.0480202
0.133325 0.031267 -0.0479804
0.133363 0.0311964 -0.0478719
0.133316 0.0312247 -0.0479318
0.133309 0.0311876 -0.0478892
0.133304 0.031166 -0.0478644
0.133354 0.0311041 -0.0477943
0.1333 0.0310945 -0.0478124
0.133295 0.0310234 -0.0477607
0.133493 0.0313851 -0.0481519
0.133459 0.0313372 -0.048049
0.133494 0.0312606 -0.0479496
0.133437 0.0312728 -0.0479521
0.133479 0.0311852 -0.0478653
0.133421 0.0311946 -0.0478646
0.13347 0.0310982 -0.0477922
0.133412 0.0311044 -0.0477888
0.133409 0.0310039 -0.0477265
0.133482 0.0307876 -0.0476557
0.133527 0.0308943 -0.0477041
0.133577 0.0308878 -0.0477317
0.13321 0.0307442 -0.0477027
0.133209 0.0307522 -0.0477041
0.133201 0.0308147 -0.0477151
0.133198 0.0308602 -0.0477346
0.133195 0.0309199 -0.0477601
0.133192 0.0309723 -0.0477825
0.133191 0.0309959 -0.0477927
0.133194 0.0310732 -0.0478493
0.133198 0.0311505 -0.047906
0.133201 0.0311672 -0.0479254
0.133208 0.031204 -0.0479684
0.133216 0.031246 -0.0480174
0.133222 0.0312766 -0.048053
0.133235 0.0313064 -0.0481108
0.133236 0.03131 -0.0481178
0.133261 0.0313648 -0.048224
0.133072 0.030707 -0.047796
0.133111 0.0307206 -0.0477546
0.133043 0.0306933 -0.0478441
0.133009 0.0307373 -0.0480335
0.133006 0.0307568 -0.0479788
0.133002 0.0309216 -0.0480665
0.133013 0.030777 -0.0479248
0.133024 0.0306799 -0.0478972
0.133032 0.0307971 -0.0478735
0.133009 0.0308697 -0.0479659
0.133027 0.0308961 -0.0479174
0.133009 0.0309556 -0.0480197
0.133028 0.0309878 -0.0479749
0.133025 0.0307183 -0.0480885
0.133026 0.0306973 -0.0480791
0.133018 0.0310541 -0.0481969
0.133021 0.0310074 -0.0482319
0.133006 0.030887 -0.0481132
0.133035 0.0309592 -0.0482661
0.133106 0.0312721 -0.0482968
0.133089 0.0312433 -0.0483118
0.133064 0.0312 -0.0482154
0.133072 0.0312144 -0.0483267
0.133044 0.0311542 -0.048245
0.133066 0.0311952 -0.0483351
0.133054 0.0311491 -0.0483553
0.133148 0.0311541 -0.0479456
0.133162 0.0312336 -0.0480358
0.133215 0.0313515 -0.0482404
0.133182 0.0312989 -0.0481358
0.133155 0.0313187 -0.0482675
0.133121 0.0312858 -0.0482882
0.133095 0.0312403 -0.0481867
0.133208 0.0313478 -0.0482434
0.133135 0.0312736 -0.0481598
0.133077 0.0311786 -0.0480924
0.133047 0.0311415 -0.0481258
0.133034 0.0310702 -0.048045
0.133027 0.0310994 -0.0481611
0.133016 0.0310327 -0.0480854
0.133157 0.0307334 -0.0477213
0.133145 0.0308493 -0.0477541
0.133139 0.0309598 -0.0478032
0.13314 0.0310622 -0.0478674
0.133061 0.0308162 -0.047827
0.133099 0.0308339 -0.0477867
