# .PCD v0.7 - Point Cloud Data file format
VERSION 0.7
FIELDS x y z
SIZE 4 4 4
TYPE F F F
COUNT 1 1 1
WIDTH 437
HEIGHT 1
VIEWPOINT 0 0 0 1 0 0 0
POINTS 437
DATA ascii
-0.031714 -0.048918001 -0.001511
-0.031459998 0.041014999 -0.001499
-0.031389002 0.041014999 -4.9999999e-06
-0.031159 0.043621998 0.0044800001
-0.030855 0.041014999 -0.007485
-0.030608 -0.048918001 -0.007425
-0.030463001 -0.051146001 -0.0073899999
-0.030351 0.043570001 -0.007363
-0.030137001 0.046016 0.0043330002
-0.029815 0.046117999 -0.0072329999
-0.029622 -0.051146001 0.010252
-0.029335 -0.053091001 -0.0071169999
-0.028991999 0.046117999 0.010034
-0.028772 0.046016 0.0099579999
-0.028556 0.048397001 -0.0069280001
-0.028386001 -0.054505002 -0.0013520001
-0.028264999 -0.054281 -0.001346
-0.027767999 0.048397001 0.0096110003
-0.027573001 0.048248999 0.0095429998
-0.027458999 -0.053091001 -0.01254
-0.027276 0.041014999 0.015748
-0.027047001 0.043570001 0.015615
-0.026656 -0.054505002 -0.0094750002
-0.026001001 0.048397001 -0.013467
-0.025818 0.048248999 -0.013373
-0.025622999 -0.054281 0.011702
-0.025419001 0.060070999 -0.0026720001
-0.025341 0.053975001 0.001733
-0.025292 0.060291 0.002658
-0.025165999 0.060325 0.0026449999
-0.024991 0.046117999 -0.017796
-0.024882 0.060325 0.0026149999
-0.024755999 0.060291 -0.002602
-0.024669999 0.058038998 -0.0056309998
-0.024629001 -0.059689999 0.001851
-0.02462 0.053893998 -0.0051159998
-0.024515999 0.058038998 -0.0055959998
-0.024433 -0.052924 -0.017399
-0.024308 0.060070999 -0.0078980001
-0.024262 -0.056327 0.001832
-0.024143999 0.056814998 -0.0055109998
-0.023998 -0.060325 -0.0025220001
-0.023933001 0.053975001 0.008506
-0.023802999 0.041014999 0.020625001
-0.023767 0.048248999 -0.016925
-0.023688 0.060070999 0.0092909997
-0.023584999 0.060198002 -0.0076629999
-0.023553001 -0.059689999 -0.0076529998
-0.023472 -0.060008001 -0.0076270001
-0.023382001 0.058292001 0.001748
-0.023290001 0.060070999 0.0091399997
-0.023207 -0.054505002 -0.016383
-0.023102 0.058609001 -0.003787
-0.022952 0.060070999 0.0090030003
-0.02286 -0.060325 -0
-0.022798 0.058292001 -0.005198
-0.022557 0.058609001 0.006263
-0.022403 -0.048918001 -0.022409
-0.022327 0.053893998 -0.011569
-0.022287 -0.060325 0.0050869999
-0.022206999 0.048397001 0.019243
-0.022135001 0.060070999 0.012779
-0.022104001 0.058673002 -0.0071820002
-0.022025 0.060291 0.012716
-0.021915 -0.056318 -0.0050019999
-0.021915 0.060325 0.012652
-0.021826001 0.058292001 -0.0086960001
-0.021743 0.058292001 0.008533
-0.021668 -0.059689999 -0.0049459999
-0.021667 0.060070999 -0.012509
-0.021557 0.060291 0.012446
-0.021477001 0.060198002 0.0124
-0.021446999 0.060070999 -0.012382
-0.021379 -0.060070999 0.0069459998
-0.021251 -0.056318 -0.0069019999
-0.021172 -0.06024 -0.012224
-0.021011 -0.059689999 -0.0068239998
-0.020896999 -0.060325 0.012065
-0.020699 -0.052924 -0.021708
-0.020478001 0.058842 0.010857
-0.020253001 -0.056318 -0.009753
-0.020135 0.048248999 -0.021117
-0.020024 -0.056478001 -0.0096429996
-0.019784 0.058038998 0.015776999
-0.019626999 0.041014999 0.024956999
-0.019526999 -0.054281 -0.020479999
-0.019377001 -0.051146001 0.024639999
-0.019272 0.060070999 0.015376
-0.019060999 -0.056327 0.015216
-0.018965 0.046117999 0.024116
-0.018805001 0.060325 -0.016931999
-0.018802 0.058673002 0.013661
-0.018541999 -0.052924 0.023577999
-0.018498 0.060291 0.016656
-0.018404 0.060070999 -0.016571
-0.018340999 -0.060008001 -0.016514
-0.018168001 -0.06024 -0.016359
-0.018099001 -0.056478001 0.016903
-0.017905001 -0.059689999 -0.013016
-0.017873 -0.060325 0.014253
-0.017624 -0.06024 0.014055
-0.017523 0.058927 -0.0078929998
-0.017384 0.057785001 -0.018735999
-0.017293001 0.060070999 -0.018634001
-0.017165 0.041014999 -0.02671
-0.017028 0.041014999 -0.026496001
-0.016946999 -0.051146001 -0.02637
-0.016756 -0.059689999 -0.018054999
-0.016686 -0.054189999 -0.0038079999
-0.016493 -0.054393999 -0.003764
-0.016311999 0.058927 -0.0040739998
-0.015981 0.056814998 -0.017223001
-0.015826 -0.048918001 -0.0274
-0.015721001 0.058927 -0.016596001
-0.015628999 -0.056478001 -0.01921
-0.015241 -0.054393999 -0.00734
-0.015023 0.060070999 -0.020677
-0.014948 0.060291 0.020575
-0.014701 -0.054505002 0.024180001
-0.014557 -0.059689999 -0.020035001
-0.014549 0.041014999 0.028221
-0.014425 0.043621998 0.02798
-0.014363 0.060070999 0.021058001
-0.014255 0.060070999 0.020908
-0.014183 -0.060325 -0.019522
-0.014141 0.058927 -0.014874
-0.014055 -0.06024 -0.017624
-0.013952 0.046016 0.027062001
-0.01391 -0.060008001 0.017442999
-0.013857 -0.056478001 0.017376
-0.013744 -0.052924 0.026660999
-0.013465 0.048397001 0.026117999
-0.01337 0.048248999 0.025934
-0.013226 -0.054393999 0.010547
-0.013165 -0.056318 -0.018108999
-0.013016 -0.059689999 0.017905001
-0.012113 0.058292001 -0.020132
-0.011786 0.058927 -0.019587999
-0.01165 -0.051146001 -0.029100999
-0.011402 0.046117999 -0.028481999
-0.01122 -0.052820999 0.0025609999
-0.011088 -0.053056002 0.0025309999
-0.010934 0.053975001 -0.022685001
-0.010844 0.048248999 -0.027088
-0.010686 -0.056478001 -0.022216
-0.010547 -0.054393999 -0.013226
-0.010396 0.060070999 0.023349
-0.010369 -0.052820999 -0.0049930001
-0.010292 0.060325 0.023117
-0.010176 0.060325 0.022856001
-0.010087 0.060198002 -0.022655001
-0.010073 0.060070999 0.022624001
-0.0099440003 -0.06024 0.022334
-0.0098299999 0.058609001 0.021245999
-0.009753 -0.056318 -0.020253001
-0.0096429996 -0.059689999 -0.020024
-0.0095250001 0.058673002 -0.00031800001
-0.0089450004 0.041014999 0.030463999
-0.0088689998 0.043621998 0.030204
-0.0085779997 0.046016 0.029214
-0.0082550002 0.058927 0.01016
-0.0082059996 0.041014999 0.030606
-0.0081139999 -0.048918001 -0.030294999
-0.0078910002 0.048397001 -0.028169001
-0.007491 0.060070999 0.024293
-0.0074260002 -0.054189999 -0.01542
-0.007404 0.060196999 0.013335
-0.00734 -0.054393999 -0.015241
-0.0072590001 -0.059689999 0.023538001
-0.0071820002 0.056561001 0.022104001
-0.0070910002 -0.053056002 -0.0088919997
-0.006906 -0.056327 -0.023518
-0.0068529998 0.053975001 -0.024458
-0.006784 0.053893998 -0.024214
-0.0066669998 0.060196999 -0.0045579998
-0.005961 0.041014999 -0.030927001
-0.005806 0.046117999 -0.030125
-0.0056770002 -0.052924 -0.029453
-0.0055559999 -0.052489001 0.001268
-0.005314 0.060070999 0.025
-0.0052609998 0.060325 -0.024752
-0.005196 -0.052237 0.002502
-0.0051489999 -0.059689999 -0.024224
-0.005134 -0.052489001 0.002473
-0.0050829998 -0.06024 -0.023913
-0.0050320001 0.058609001 0.022863001
-0.0050019999 -0.056318 -0.021915
-0.0049640001 -0.060008001 -0.021751
-0.0049459999 -0.056478001 0.021668
-0.0045090001 -0.052237 0.0035959999
-0.0043219998 0.058673002 -0.017293001
-0.003849 0.058927 0.0092080003
-0.0038079999 -0.054189999 -0.016686
-0.0037710001 0.060070999 -0.025022
-0.003729 0.056561001 -0.024739999
-0.0036790001 -0.059689999 -0.024378
-0.0035959999 -0.052237 0.0045090001
-0.003492 0.058927 -0.00031800001
-0.003459 0.053975001 0.025163
-0.0030179999 -0.048918001 0.031606
-0.0029800001 -0.051146001 0.031204
-0.002869 -0.053091001 0.03005
-0.0027739999 0.048248999 0.029046001
-0.00254 0.058292001 -0.023357
-0.002502 -0.052237 -0.005196
-0.002473 -0.052489001 0.005134
-0.0022229999 0.060196999 0.003175
-0.001283 -0.052237 -0.005622
0 -0.060325 -0.02286
0 -0.06024 0.022543
0 -0.060008001 -0.02468
0 -0.059689999 -0.022225
0 -0.056478001 0.024765
0 -0.054505002 -0.028418001
0 -0.054281 0.028297
0 -0.053056002 0.011373
0 -0.052489001 -0.0056989999
0 -0.051146001 -0.031346001
0 -0.048918001 0.031606
0 0.043570001 -0.031230999
0 0.048397001 -0.029384
0 0.056561001 -0.023241
-0 0.057785001 0.0254
-0 0.058038998 0.025304999
0 0.058842 0.023178
0 0.060070999 -0.024765
0 0.060196999 0.0069849999
0 0.060198002 0.025525
0 0.060325 -0.025304999
0.001268 -0.052489001 0.0055559999
0.002107 0.058673002 -0.017499
0.0022229999 0.060196999 0.003175
0.002473 -0.052489001 0.005134
0.0025279999 0.060196999 -0.0076199998
0.0025609999 -0.052820999 -0.01122
0.0027930001 0.048397001 0.029251
0.0028939999 0.046016 0.030308999
0.002992 0.043621998 0.031337
0.0033219999 0.058927 0.00254
0.003483 0.058292001 -0.023150001
0.003492 0.060196999 0.001905
0.0035959999 -0.052237 0.0045090001
0.0036800001 -0.056478001 -0.024448
0.0037479999 0.058038998 -0.024865
0.0037710001 0.060070999 -0.025022
0.0038089999 0.057785001 -0.025273001
0.0038600001 -0.054505002 -0.028049
0.0044550002 -0.052489001 -0.003553
0.0049350001 -0.053056002 -0.010247
0.0049459999 -0.056478001 0.021668
0.0049930001 -0.052820999 0.010369
0.0050169998 -0.060325 -0.023603
0.00508 0.060196999 0.015659001
0.0051310002 -0.060008001 -0.024141001
0.0051489999 -0.059689999 0.024224
0.0051750001 0.060291 -0.024348
0.005202 0.060325 0.024472
0.0053070001 0.060198002 -0.024967
0.005378 -0.054505002 -0.027904
0.005622 -0.052237 -0.001283
0.0057620001 0.046016 -0.029897001
0.005932 -0.051146001 -0.030780001
0.0060089999 0.041014999 -0.031176001
0.0066669998 0.060196999 0.0016740001
0.0068239998 -0.056478001 -0.021011
0.0069019999 -0.056318 0.021251
0.0069459998 -0.060070999 0.021379
0.0071820002 0.056561001 -0.022104001
0.0072249998 -0.060070999 0.023422001
0.0073000002 0.056814998 0.023665
0.0073739998 0.060070999 0.023907
0.007425 0.053975001 0.024052
0.0074749999 0.058609001 -0.022183999
0.0076609999 -0.054505002 0.027333001
0.008006 -0.054505002 0.027267
0.0081799999 -0.048918001 -0.030539
0.0082550002 0.058927 0.0076199998
0.0084509999 -0.052924 0.02878
0.0087989997 0.043570001 0.029966
0.0088919997 -0.053056002 -0.0070910002
0.0089980001 -0.052820999 0.0071749999
0.0096429996 -0.059689999 0.020024
0.0097319996 0.058842 0.021035001
0.009815 -0.060325 -0.022043999
0.0099189999 -0.060325 -0.020595999
0.0099440003 -0.06024 0.022334
0.010073 -0.059689999 0.022624001
0.010119 0.053975001 0.023297001
0.010176 0.060325 0.022856001
0.010292 0.060325 0.023117
0.010382 0.060198002 -0.023318
0.010533 -0.056327 -0.021861
0.010671 -0.054189999 -0.013381
0.010745 0.056814998 -0.022312
0.01091 0.058038998 -0.022655999
0.011021 0.057785001 -0.022885
0.011148 -0.052924 -0.027845999
0.011316 0.046016 -0.028266
0.01158 0.048248999 0.026651001
0.011706 -0.048918001 -0.029239999
0.011949 0.058842 -0.019859999
0.013016 -0.059689999 -0.017905001
0.013065 0.053893998 -0.021485001
0.013213 -0.060070999 -0.018185999
0.013252 -0.056327 -0.02062
0.013463 0.058673002 -0.001356
0.013661 0.058673002 -0.018802
0.013806 0.058927 -0.015057
0.013857 -0.059689999 0.017376
0.01391 -0.060008001 0.017442999
0.014015 -0.056318 -0.017574999
0.014058 0.046117999 0.027269
0.014167 0.058609001 0.018635999
0.014253 -0.060325 -0.017873
0.014308 0.057785001 0.020986
0.01437 -0.06024 0.019778
0.014506 -0.060008001 -0.019966001
0.014557 -0.059689999 0.020035001
0.014631 0.060291 -0.020137999
0.014874 0.060325 -0.020471999
0.015003 0.060198002 0.020649999
0.01524 0.048397001 -0.025053
0.01542 -0.054189999 -0.0074260002
0.015698999 -0.048918001 -0.027181
0.015817 0.041014999 0.027406
0.015938999 0.058842 -0.016827
0.016156999 0.058292001 -0.017057
0.016461 0.046016 -0.025614001
0.016576 0.058927 -0.012072
0.016721999 -0.056478001 -0.01804
0.016884999 0.043570001 -0.026272999
0.017016999 0.060070999 -0.018340001
0.017115001 -0.054189999 0
0.017212 0.060070999 -0.018549999
0.017376 -0.056478001 -0.013857
0.017442999 -0.060008001 0.01391
0.017574999 -0.056318 -0.014015
0.017842 0.058609001 0.015155
0.017905001 -0.059689999 0.013016
0.017932 -0.060325 0.016146
0.018164 0.048397001 0.023097999
0.018313 0.058292001 0.014611
0.018385001 0.048248999 0.022603
0.018429 0.060198002 -0.016594
0.018524 -0.056327 -0.016051
0.018593 0.060325 0.016741
0.018802 0.058673002 0.013661
0.018898999 0.060291 0.017016999
0.018994 0.060070999 -0.017101999
0.019207999 -0.056478001 0.015332
0.019362001 0.056814998 0.015441
0.019470001 -0.048918001 0.024758
0.019561 0.060070999 0.015599
0.019742001 0.053975001 0.015728001
0.019982999 0.057785001 0.015936
0.020101 -0.060008001 -0.0096800001
0.020238999 0.058292001 -0.01169
0.02031 -0.06024 0.0097810002
0.020595999 -0.060325 0.0099189999
0.020757999 0.058292001 0.011005
0.021011 -0.059689999 0.0068239998
0.021171 0.046117999 -0.022204001
0.02124 0.048248999 -0.019842001
0.021373 -0.060008001 -0.01234
0.02139 0.048397001 -0.019982999
0.021446999 0.060070999 0.012382
0.021531001 0.058842 -0.0085789999
0.021667 0.056561001 -0.012509
0.021668 -0.059689999 0.0049459999
0.021734999 -0.048918001 -0.022794999
0.021751 -0.060008001 0.0049640001
0.021910001 -0.048918001 -0.022979001
0.021915 0.060325 0.012652
0.021988001 -0.056478001 0.011394
0.022050999 0.048248999 0.019107001
0.022105001 0.060198002 -0.012762
0.022179 -0.048918001 0.022174001
0.022225 -0.059689999 0
0.022296 -0.056327 0.010182
0.022358 0.041014999 0.022352999
0.022543 -0.06024 0
0.022669001 -0.052924 0.019642999
0.022825999 0.058927 0.001238
0.022949001 -0.060325 -0.0074570002
0.023050001 -0.054281 -0.016414
0.023185 0.058292001 -0.0038010001
0.023251001 -0.06024 -0.007555
0.023335001 -0.056478001 -0.008293
0.023460999 0.058292001 0.001272
0.023553001 -0.059689999 0.0076529998
0.023556 0.053975001 0.009234
0.023674 0.060291 -0.0076919999
0.023700999 -0.056327 -0.0053969999
0.023793999 0.060325 -0.007731
0.023898 0.048397001 0.016868001
0.023995001 0.041014999 0.020792
0.024065999 0.060325 -0.0078199999
0.024247 -0.056478001 0.005039
0.024274999 0.060198002 0.0078880005
0.024391999 0.056561001 -0.0055669998
0.024466 -0.056478001 0.001835
0.024589 -0.053091001 -0.017510001
0.024629001 -0.059689999 0.0025889999
0.024662999 0.060198002 0.0025919999
0.024707001 -0.056478001 -0.0016899999
0.024800999 0.046016 -0.017661
0.024948999 0.056561001 0.00187
0.025087001 0.053893998 0.001716
0.025234001 0.060070999 0.001891
0.025328999 0.057785001 0.001898
0.025419001 0.060070999 -0.0026720001
0.025487 0.057785001 0.00191
0.025656 0.041014999 -0.018269001
0.025862999 0.041014999 -0.018417001
0.026541 0.048248999 -0.012121
0.026854999 -0.054505002 0.0092949998
0.027153 0.041014999 -0.015676999
0.027372001 -0.048918001 -0.015803
0.027496001 0.041014999 0.015875001
0.027696 0.046016 -0.012648
0.028008999 -0.054281 0.0040270002
0.028345 -0.052924 0.0098099997
0.028514 -0.051146001 -0.013022
0.028650001 0.041014999 -0.013084
0.028881 0.041014999 -0.013189
0.029149 -0.052924 -0.0070719998
0.029513 0.043570001 0.010215
0.029764 -0.048918001 0.010301
0.030004 -0.048918001 0.010384
0.030293001 -0.048918001 0.0081200004
0.030367 0.046117999 0.0043660002
0.030592 0.043621998 -0.0074220002
0.030645 0.046117999 -0.0014600001
0.031027 -0.051146001 0.0044610002
0.031196 0.043570001 -0.001486
0.031427 0.041014999 0.0045179999
0.031642001 0.041014999 -4.9999999e-06
