# .PCD v0.7 - Point Cloud Data file format
VERSION 0.7
FIELDS x y z
SIZE 4 4 4
TYPE F F F
COUNT 1 1 1
WIDTH 1049
HEIGHT 1
VIEWPOINT 0 0 0 1 0 0 0
POINTS 1049
DATA ascii
0.015913 0.032513998 0.207031
0.016152 0.210714 0.20337901
0.016252 0.210714 0.201859
0.016550001 0.213148 0.212163
0.017263001 0.032513998 0.196775
0.017356001 0.030816 0.217261
0.017459 0.210714 0.196198
0.017845999 0.239746 0.207008
0.017864 0.228714 0.205771
0.017902 0.24011301 0.206369
0.017911 0.23989999 0.20919199
0.017928001 0.23997 0.209563
0.017941 0.22420201 0.20577399
0.018034 0.227907 0.205777
0.018057 0.240751 0.210333
0.018095 0.240825 0.20285501
0.018111 0.24065299 0.21151599
0.018200999 0.227907 0.210787
0.018286999 0.22466099 0.210778
0.018356999 0.241485 0.213172
0.018385001 0.22371399 0.200764
0.018408 0.215437 0.197082
0.018444 0.223225 0.200774
0.018536 0.227907 0.200789
0.018634001 0.227136 0.205797
0.018699 0.24289501 0.199212
0.018779 0.225383 0.20580199
0.018831 0.21744099 0.202198
0.018901 0.22236399 0.20085099
0.018928999 0.210714 0.222194
0.018944999 0.223225 0.21575101
0.019019 0.025356 0.197246
0.019089 0.24414501 0.198193
0.019183001 0.244435 0.21628501
0.01922 0.22688299 0.210684
0.019382 0.221826 0.210668
0.019528 0.226742 0.205827
0.01957 0.028003 0.19213299
0.019598 0.24518099 0.19571
0.019624 0.24555799 0.196018
0.019688999 0.226742 0.210637
0.019704999 0.225601 0.200987
0.01976 0.225383 0.21555699
0.019861 0.22172201 0.21062
0.019933 0.24565201 0.21935301
0.020025 0.215437 0.192321
0.020052001 0.22236399 0.196023
0.020143 0.210714 0.224655
0.020272 0.227136 0.196091
0.020375 0.21904001 0.207031
0.020408999 0.22204401 0.196134
0.02052 0.227907 0.22051699
0.0206 0.222766 0.220486
0.020656999 0.225706 0.215343
0.020764999 0.24804699 0.192792
0.020767 0.24774 0.221531
0.020779001 0.247665 0.192471
0.020803999 0.24818499 0.22113401
0.020831 0.221826 0.196265
0.020835999 0.24828599 0.193028
0.020873001 0.24765299 0.22181199
0.020924 0.247749 0.221874
0.020962 0.24816 0.19230101
0.020962 0.24783599 0.192129
0.020981999 0.248551 0.192945
0.021067001 0.24799301 0.22202501
0.021093 0.248015 0.192028
0.021135001 0.248733 0.221341
0.021221001 0.032513998 0.226843
0.021229001 0.226714 0.200206
0.021269999 0.24823201 0.222147
0.021287 0.24825899 0.191899
0.021291001 0.248255 0.222158
0.021315999 0.24885 0.192542
0.021345001 0.228714 0.191164
0.021407001 0.248383 0.22221901
0.021462001 0.221714 0.19645999
0.021499 0.227907 0.191236
0.021575 0.24896701 0.22173101
0.021627 0.221826 0.220091
0.021663999 0.020939 0.21149001
0.0217 0.248601 0.222285
0.021795999 0.245897 0.190245
0.021823 0.24904101 0.221902
0.021884 0.246142 0.19010299
0.021954 0.250397 0.194803
0.022031 0.2464 0.224084
0.022076 0.22172201 0.219918
0.022108 0.250534 0.194581
0.02217 0.249043 0.191948
0.022173 0.24885701 0.222307
0.022221999 0.24907 0.22209799
0.022248 0.215437 0.22624999
0.022334 0.24905699 0.22213501
0.022428 0.22688299 0.19166601
0.022496 0.22371399 0.22513799
0.022536 0.020939 0.215873
0.02263 0.227907 0.22506399
0.022716001 0.24709301 0.189794
0.022795999 0.025356 0.18812799
0.022913 0.244527 0.225866
0.022964001 0.249589 0.19246399
0.023011999 0.22172201 0.191938
0.023043999 0.25075901 0.220247
0.023050999 0.221714 0.220487
0.023174999 0.221714 0.192013
0.023220001 0.225714 0.193645
0.023267001 0.252422 0.196298
0.023290999 0.247391 0.22421101
0.023367999 0.24523599 0.22624899
0.023474 0.21744099 0.22554199
0.02361 0.250691 0.193592
0.023670999 0.225601 0.224494
0.023778999 0.22371399 0.186757
0.023845 0.24569499 0.22627699
0.023932001 0.032513998 0.23089901
0.023972001 0.020939 0.22010501
0.024081999 0.246796 0.225062
0.024101 0.032513998 0.231152
0.024121 0.227484 0.186976
0.024188001 0.022972001 0.188932
0.024250001 0.221714 0.224176
0.02434 0.213148 0.230969
0.024397001 0.24601001 0.187896
0.02444 0.2525 0.195364
0.024536001 0.225383 0.187241
0.024652001 0.028003 0.23073
0.024715999 0.252428 0.195244
0.024782 0.25438899 0.197588
0.024852 0.25480101 0.21525399
0.024908001 0.225601 0.18747801
0.025041999 0.215437 0.23043001
0.025150999 0.24448 0.185781
0.025214 0.228379 0.22937299
0.025314 0.225706 0.187737
0.025412001 0.244665 0.185849
0.025451001 0.226714 0.18782499
0.025543001 0.025356 0.184016
0.02568 0.244807 0.185947
0.025811 0.227136 0.22893301
0.025911 0.24237099 0.183764
0.025948999 0.020939 0.18994799
0.026001999 0.244958 0.227989
0.026122 0.25624099 0.19918001
0.026175 0.019331001 0.219193
0.026255 0.256228 0.21516301
0.0263 0.221714 0.226566
0.026412999 0.243202 0.230327
0.026455 0.256226 0.215398
0.026559999 0.25493801 0.216738
0.026652001 0.018208001 0.203228
0.026714001 0.25623199 0.19848099
0.026811 0.223225 0.18274499
0.026819 0.022972001 0.229067
0.026912 0.25611901 0.215791
0.027058 0.24141499 0.23170701
0.027152 0.25602001 0.215937
0.02734 0.227136 0.183192
0.027435999 0.255941 0.198029
0.027518 0.032513998 0.23504899
0.027587 0.030816 0.234981
0.027641 0.258008 0.200867
0.02771 0.25808901 0.20062999
0.027784999 0.25807399 0.21373101
0.027927 0.242036 0.23235901
0.028013 0.019331001 0.19114
0.028134 0.25805399 0.21423601
0.028292 0.221714 0.18399701
0.028343 0.25799 0.21445601
0.028432 0.020939 0.22782899
0.028496999 0.223225 0.233181
0.028571 0.24273799 0.181977
0.028620001 0.018208001 0.21818
0.028791999 0.25777099 0.214794
0.028829999 0.22236399 0.232859
0.028893 0.210714 0.177806
0.029070999 0.25767899 0.199178
0.029215001 0.01761 0.207031
0.029417001 0.225601 0.232292
0.029523 0.240407 0.179795
0.029572999 0.240685 0.23432299
0.029684 0.240991 0.23432399
0.029763 0.225706 0.231958
0.029890999 0.221714 0.231833
0.030009 0.24156401 0.17986199
0.030112 0.01761 0.213843
0.030213 0.241806 0.234079
0.030277999 0.25981301 0.200636
0.030323001 0.019331001 0.187683
0.030424001 0.22466099 0.17926501
0.030575 0.24236199 0.180792
0.030657999 0.242155 0.180317
0.030672999 0.221714 0.18216699
0.030769 0.227136 0.179647
0.030812999 0.259312 0.200141
0.030897999 0.25938001 0.200176
0.031124 0.017514 0.203817
0.031218 0.01761 0.19695801
0.031378001 0.020939 0.182872
0.031415001 0.210714 0.23846699
0.031594001 0.226714 0.180558
0.031605002 0.225714 0.180571
0.03167 0.240068 0.236174
0.031752001 0.017514 0.213404
0.031769998 0.240381 0.236155
0.031838 0.028003 0.176146
0.031900998 0.26161301 0.212128
0.031992 0.26168299 0.201966
0.032078002 0.25322399 0.195908
0.032175999 0.228714 0.23661301
0.032224 0.22420201 0.236552
0.032253999 0.23962501 0.236636
0.032303002 0.25812599 0.19943599
0.032423001 0.018208001 0.18929499
0.032444999 0.254713 0.19732299
0.032496002 0.25168899 0.194599
0.032522 0.26134199 0.201276
0.032613002 0.25801399 0.199439
0.032632001 0.253198 0.19609401
0.032717001 0.26116899 0.20112
0.032742999 0.22204401 0.23589499
0.032786999 0.017514 0.216454
0.032809 0.25793701 0.19945399
0.032917 0.258205 0.21444599
0.032961 0.25455299 0.19757199
0.032999001 0.21744099 0.17765801
0.033062 0.25335601 0.21749499
0.033103 0.25603899 0.198709
0.033117 0.25472799 0.216175
0.033194002 0.25774699 0.19954699
0.033250999 0.25439399 0.19780301
0.033312999 0.25618699 0.21505401
0.033369999 0.250599 0.220479
0.033383001 0.252987 0.19656
0.033426002 0.221714 0.23503
0.033475999 0.25420299 0.198072
0.033500999 0.022972001 0.23574901
0.033546001 0.250633 0.220411
0.033567 0.25307399 0.21702699
0.033613 0.25560299 0.19925
0.033651002 0.25776401 0.214175
0.033686999 0.251863 0.21858101
0.033707 0.25377801 0.198651
0.033737 0.25572199 0.214462
0.033774 0.255256 0.19973201
0.033787999 0.25560501 0.21429799
0.033822 0.241436 0.235943
0.033836 0.25160101 0.195306
0.033879001 0.25538 0.20031101
0.0339 0.26328501 0.210851
0.033920001 0.252608 0.216377
0.033943001 0.25713101 0.200141
0.033961002 0.25063199 0.220171
0.034008 0.23990101 0.17622
0.034033999 0.250413 0.193616
0.034093998 0.25687599 0.200479
0.034127999 0.24021199 0.176304
0.034131002 0.21904001 0.234927
0.034147002 0.25150499 0.217994
0.034194998 0.261327 0.201162
0.034214001 0.22371399 0.17596801
0.034230001 0.263282 0.202665
0.034247998 0.24935199 0.221834
0.034277 0.240499 0.17643499
0.034297999 0.25134999 0.217759
0.034348998 0.22466099 0.176165
0.034433998 0.25881001 0.20074099
0.034458999 0.26154599 0.21280999
0.034510002 0.22236399 0.17640001
0.034557 0.250411 0.219613
0.034634002 0.24095 0.176817
0.034655001 0.24917901 0.192111
0.034703001 0.25888699 0.21303999
0.034711 0.210714 0.173392
0.034722 0.225383 0.176709
0.034768999 0.25020301 0.21928699
0.034811001 0.25793299 0.211849
0.034828 0.257851 0.202131
0.034876 0.25860199 0.212697
0.034899 0.250007 0.19452401
0.034936 0.249385 0.221386
0.034972001 0.221826 0.177073
0.035046998 0.249983 0.194635
0.035096999 0.249175 0.19242901
0.035183001 0.248041 0.22341301
0.035282001 0.248209 0.22318099
0.035335999 0.226714 0.17760301
0.035445001 0.26015899 0.20149501
0.035512 0.260546 0.21258201
0.035622001 0.248951 0.193
0.035684999 0.24806 0.190764
0.035725001 0.032513998 0.17271499
0.035728 0.25916401 0.211133
0.035767999 0.25920501 0.202952
0.035773002 0.030816 0.241263
0.035875 0.213148 0.24108499
0.035935 0.259514 0.21114001
0.036001001 0.017514 0.19204099
0.036026001 0.26464599 0.204043
0.036072001 0.028003 0.24074499
0.036102999 0.226714 0.177946
0.036166999 0.26214299 0.20176101
0.036233 0.248175 0.222397
0.036265999 0.26475799 0.210274
0.036318 0.215437 0.173742
0.036343999 0.26481301 0.204101
0.036366999 0.22420201 0.23939601
0.036432002 0.240952 0.176388
0.036460999 0.26464999 0.21086299
0.036522999 0.248006 0.222029
0.036591001 0.26453099 0.211134
0.036633998 0.025356 0.17429
0.03672 0.26460299 0.20295399
0.036793999 0.22204401 0.238675
0.036865 0.26444301 0.202713
0.036924001 0.01761 0.22564299
0.036949001 0.26050699 0.20364501
0.037018999 0.221826 0.238296
0.037025001 0.21744099 0.239094
0.037108 0.26128501 0.211514
0.037179001 0.26403299 0.202353
0.037211001 0.26091701 0.210912
0.037287001 0.26530999 0.209784
0.037347 0.226714 0.23774201
0.037438001 0.022972001 0.17568199
0.037577 0.264092 0.211706
0.037725002 0.26389301 0.21173599
0.037827998 0.263129 0.20231
0.037955999 0.21904001 0.176579
0.038109001 0.263318 0.211674
0.038160998 0.246553 0.189852
0.038281001 0.23866101 0.240504
0.038361002 0.26207 0.20315801
0.038408998 0.26162601 0.204145
0.038481001 0.24068099 0.23881701
0.038548999 0.228379 0.17341401
0.038612999 0.227907 0.17354
0.038644001 0.26604 0.20952401
0.038663 0.246189 0.224935
0.038738001 0.24617299 0.224852
0.03878 0.22236399 0.173871
0.038837999 0.239259 0.173363
0.038871001 0.245474 0.227112
0.038931001 0.239581 0.24058101
0.039032001 0.26579201 0.210691
0.039085999 0.26491499 0.202664
0.039179999 0.24013101 0.173871
0.039273001 0.23855101 0.241035
0.039328001 0.24033201 0.23993801
0.039437 0.265167 0.21129499
0.039473999 0.26510301 0.21133
0.039510999 0.26416299 0.20271499
0.039607 0.265192 0.202767
0.039666999 0.244973 0.186185
0.039795 0.26356 0.203035
0.039903998 0.264112 0.21121
0.039997 0.26390901 0.21110199
0.040116999 0.24527299 0.187447
0.040270001 0.26311901 0.210224
0.040373001 0.032513998 0.170423
0.040410001 0.030816 0.243549
0.040546998 0.017514 0.226566
0.040800001 0.244711 0.228202
0.040833 0.228379 0.241707
0.040920999 0.222766 0.24149799
0.040987 0.227484 0.241344
0.041069001 0.025356 0.24195901
0.041179001 0.225383 0.24089099
0.041239001 0.210714 0.170129
0.041306 0.26333201 0.204822
0.041345 0.238391 0.17211799
0.041356001 0.244633 0.186473
0.041373 0.23872 0.17212901
0.041429002 0.239057 0.24186
0.041498002 0.244137 0.229379
0.041529 0.26726899 0.20462801
0.041549001 0.26730201 0.209121
0.041602001 0.226714 0.23989201
0.041625001 0.26519001 0.21098
0.041689999 0.26395699 0.203896
0.041715 0.23993801 0.172758
0.041762002 0.26695299 0.203738
0.041855998 0.26457399 0.210656
0.041960999 0.26423201 0.21031401
0.042015001 0.26377401 0.20907
0.042080998 0.21904001 0.239516
0.042112999 0.240374 0.17367201
0.042151 0.226714 0.23934799
0.042461999 0.020939 0.175466
0.042682 0.24394201 0.18450101
0.042952001 0.24392299 0.184853
0.043198001 0.223225 0.171496
0.043228 0.227907 0.171583
0.043311 0.227484 0.171822
0.043425001 0.227136 0.172151
0.043563999 0.22688299 0.17254999
0.043662 0.26549801 0.210549
0.043767001 0.26511899 0.210251
0.043813001 0.24025699 0.241056
0.043853998 0.26471001 0.209667
0.043868002 0.26443601 0.20886201
0.044038001 0.26813799 0.20888001
0.044078998 0.238572 0.242911
0.044174001 0.26796901 0.20979699
0.044257998 0.26820901 0.204899
0.044339001 0.267593 0.210329
0.044388 0.018208001 0.23394801
0.044530001 0.26708299 0.21068799
0.044624001 0.26740599 0.20354401
0.044789001 0.238205 0.170902
0.044945002 0.26719901 0.20340601
0.045164999 0.26643699 0.20347901
0.045281 0.032513998 0.245305
0.045306001 0.030816 0.24521101
0.045380998 0.26732501 0.20344201
0.045444999 0.265138 0.20476601
0.045464002 0.01761 0.182712
0.045586001 0.228379 0.243358
0.045623001 0.227907 0.243221
0.045720998 0.22236399 0.242864
0.045782 0.227136 0.242642
0.04583 0.265136 0.20864201
0.045919999 0.242704 0.23242299
0.045954999 0.21744099 0.242792
0.046064001 0.225706 0.241613
0.046114001 0.017514 0.22978
0.046436001 0.21904001 0.240995
0.046727002 0.242576 0.18127
0.046831001 0.238473 0.170386
0.046905 0.26869601 0.20960499
0.046971001 0.239455 0.24322601
0.047042001 0.239712 0.242962
0.047120001 0.239911 0.242661
0.047198001 0.240045 0.17172199
0.047306001 0.24013799 0.24191201
0.047352001 0.267665 0.210503
0.047481999 0.242524 0.232574
0.047573999 0.26657799 0.21022099
0.047678001 0.242447 0.18113101
0.047706999 0.26552901 0.208534
0.047963001 0.242433 0.232604
0.048029002 0.228714 0.170092
0.048062999 0.227907 0.170259
0.048136 0.225063 0.17062201
0.048266999 0.22688299 0.171262
0.048299 0.221826 0.17142101
0.048395 0.225706 0.171893
0.04843 0.225714 0.172069
0.048668001 0.26580799 0.205607
0.048712999 0.225714 0.172723
0.048723999 0.01761 0.232456
0.049082 0.26798299 0.203642
0.049189001 0.26732299 0.203732
0.049284998 0.242172 0.23352399
0.049348999 0.26587999 0.205626
0.049461 0.24207 0.180043
0.049617998 0.242117 0.180384
0.049632002 0.238409 0.244229
0.049681999 0.23909201 0.17008001
0.049727999 0.242145 0.180626
0.049823999 0.23985399 0.170884
0.049869001 0.24208701 0.233585
0.049915999 0.26925501 0.204595
0.050044 0.26857701 0.203852
0.050365001 0.210714 0.16774601
0.050404001 0.213148 0.24601699
0.050517 0.228379 0.24436
0.050535001 0.227907 0.24422
0.050585002 0.225063 0.243852
0.050634999 0.225383 0.243481
0.050703999 0.21744099 0.243737
0.050779 0.226714 0.242406
0.050824001 0.26959401 0.208496
0.05105 0.241841 0.234704
0.051194001 0.24190199 0.234304
0.051389001 0.019331001 0.23853999
0.051492002 0.24184699 0.17948
0.051635999 0.26741499 0.21016
0.051686 0.266826 0.209749
0.051713999 0.26618299 0.20835701
0.051747002 0.24185 0.23430599
0.052101001 0.01761 0.180934
0.052466001 0.269748 0.208459
0.052475002 0.23837399 0.24457
0.052501 0.269541 0.209399
0.052544001 0.26911899 0.209939
0.052575 0.239822 0.243496
0.052629001 0.24002001 0.171244
0.052756999 0.26956001 0.204666
0.052847002 0.26851001 0.203749
0.053024001 0.223225 0.169498
0.053047001 0.227484 0.169843
0.05308 0.225383 0.170334
0.053130001 0.226742 0.171082
0.053153999 0.221714 0.171433
0.053272001 0.26853001 0.20375399
0.053353 0.26695499 0.204347
0.053509001 0.24164499 0.17877901
0.053608999 0.241733 0.179378
0.054465 0.241677 0.179199
0.055254001 0.241639 0.23521499
0.055351 0.238381 0.16938201
0.055353001 0.239043 0.169631
0.055355001 0.238381 0.244679
0.055356 0.238729 0.244578
0.055357002 0.26986101 0.20874199
0.055357002 0.239043 0.24443001
0.055357002 0.239786 0.170434
0.055357002 0.26969701 0.209289
0.055358 0.269532 0.209546
0.055358 0.239897 0.17065001
0.055358998 0.268664 0.20379201
0.055358998 0.23992901 0.17079
0.055360001 0.26889801 0.210136
0.055360999 0.239786 0.243628
0.055364002 0.240007 0.242937
0.055535 0.238383 0.16937
0.055535 0.23979899 0.17042699
0.055537 0.01761 0.180709
0.055537 0.019331001 0.238812
0.055537 0.025356 0.16922399
0.055537 0.030816 0.246558
0.055537 0.213148 0.16770799
0.055537 0.21744099 0.244054
0.055537 0.221714 0.242193
0.055537 0.22236399 0.244184
0.055537 0.22466099 0.244469
0.055537 0.225714 0.171354
0.055537 0.226714 0.172051
0.055537 0.227136 0.243954
0.055537 0.228714 0.24472401
0.055539001 0.23979899 0.243635
0.055539001 0.238019 0.24472401
0.055633999 0.241592 0.178619
0.055711001 0.23992901 0.17079
0.055713002 0.240007 0.242937
0.055714 0.23960599 0.170137
0.055714998 0.239925 0.243293
0.055714998 0.26868299 0.210262
0.055716 0.269427 0.204354
0.055716 0.269447 0.209684
0.055716 0.26971799 0.209242
0.055716999 0.269779 0.209058
0.055716999 0.26986 0.20874199
0.055716999 0.238957 0.169571
0.055718001 0.23870599 0.169475
0.055718001 0.23836 0.169379
0.055721 0.238957 0.24449
0.055723 0.23836 0.244682
0.055771001 0.267194 0.20986
0.055778001 0.268628 0.21028399
0.057138 0.241696 0.17926
0.057333 0.241698 0.23493201
0.057452001 0.266431 0.20535
0.057491999 0.267557 0.20393801
0.057712998 0.24171799 0.17919099
0.057920001 0.225714 0.171433
0.057964001 0.221826 0.170774
0.058003001 0.227136 0.17019001
0.058037002 0.22466099 0.16967601
0.058053002 0.22371399 0.169438
0.058277 0.269137 0.20993499
0.058348998 0.26977101 0.208453
0.058476001 0.26851001 0.203749
0.058525998 0.23962399 0.170249
0.058555 0.23936599 0.244091
0.058589 0.26967499 0.204974
0.058603998 0.238033 0.16948
0.058750998 0.017514 0.231444
0.059078 0.23803499 0.169504
0.059292998 0.24184699 0.179745
0.059351001 0.241845 0.234475
0.059675001 0.26968101 0.205587
0.059726 0.24190401 0.23414201
0.059810001 0.266379 0.209181
0.059854999 0.26695901 0.209922
0.05999 0.26824999 0.21035101
0.060121998 0.241817 0.234762
0.060261998 0.022972001 0.171142
0.060293999 0.226714 0.242406
0.060369 0.21744099 0.243737
0.060439002 0.225383 0.243481
0.060488999 0.225063 0.243852
0.060550999 0.223225 0.244311
0.060559001 0.22371399 0.244372
0.06067 0.213148 0.24601699
0.060709 0.210714 0.16774601
0.06103 0.26857701 0.210209
0.061158001 0.26925501 0.20946699
0.061209001 0.26825699 0.20369101
0.061250001 0.23985399 0.243177
0.061305001 0.241965 0.17972299
0.061367001 0.24207699 0.233922
0.061423 0.238756 0.244138
0.061448999 0.23807099 0.169829
0.061475001 0.266013 0.20524099
0.061522 0.266554 0.204239
0.061601002 0.26714301 0.20382801
0.061753999 0.26813599 0.203657
0.062236998 0.238083 0.169937
0.062350001 0.01761 0.18160599
0.062360998 0.226714 0.241338
0.062475 0.269281 0.208574
0.062666997 0.238095 0.17003401
0.062775001 0.221826 0.17142101
0.062802002 0.210714 0.24589901
0.062890999 0.227136 0.170848
0.062994003 0.22466099 0.170343
0.063038997 0.228379 0.17012
0.063088998 0.26916501 0.205459
0.063281998 0.238107 0.24392
0.063570999 0.242484 0.181228
0.063754 0.24242701 0.18092801
0.063790001 0.240123 0.241978
0.063826002 0.265809 0.209574
0.063876003 0.240045 0.24234
0.063942 0.266482 0.21024901
0.063983999 0.266693 0.21036001
0.064035997 0.26894 0.208967
0.064104997 0.239455 0.24322601
0.064176999 0.26756799 0.21053
0.064240001 0.238472 0.170385
0.064268999 0.268879 0.205383
0.064461 0.242561 0.18127599
0.064942002 0.242652 0.181513
0.064966999 0.226714 0.241456
0.065054998 0.226742 0.241779
0.065136999 0.221826 0.24207699
0.065226004 0.26744801 0.203477
0.065292001 0.227136 0.242642
0.065352999 0.22236399 0.242864
0.065408997 0.26510799 0.20520601
0.065428004 0.222766 0.243139
0.065453999 0.242878 0.182087
0.065485001 0.215437 0.244159
0.065562002 0.242845 0.181931
0.065613002 0.028003 0.16942701
0.065714002 0.213148 0.169048
0.065779999 0.26853299 0.20876899
0.065796003 0.26694101 0.203417
0.066271 0.26839599 0.205255
0.066377997 0.24023999 0.241229
0.066532999 0.26705301 0.203361
0.066619001 0.24000201 0.241945
0.066688001 0.24332701 0.230846
0.066762 0.243426 0.183933
0.066822998 0.26780301 0.203981
0.0669 0.26796901 0.204264
0.066987999 0.26459599 0.208803
0.067013003 0.26814899 0.204882
0.06724 0.225714 0.173328
0.067354999 0.226742 0.172996
0.067601003 0.225383 0.172287
0.067648999 0.227136 0.172151
0.067699 0.019331001 0.236393
0.067777999 0.243793 0.22931001
0.067846 0.227907 0.171583
0.067876004 0.22420201 0.171496
0.067945004 0.243524 0.230598
0.068204001 0.264081 0.205088
0.068324 0.26650801 0.210859
0.068611003 0.020939 0.23859499
0.068922997 0.225714 0.174714
0.068958998 0.26624399 0.210945
0.068993002 0.21904001 0.239516
0.069090001 0.26652601 0.210775
0.069135003 0.26385099 0.20434999
0.069159001 0.263713 0.20496801
0.069233999 0.24013899 0.24103101
0.069356002 0.23993801 0.172757
0.069389001 0.022972001 0.17358799
0.069456004 0.26493701 0.20314699
0.069471002 0.226714 0.23989201
0.069490001 0.244516 0.22801501
0.069535002 0.22172201 0.240042
0.069564998 0.26421201 0.210559
0.069587998 0.24454001 0.22814301
0.069646999 0.239057 0.241859
0.069705002 0.21744099 0.17282601
0.069723003 0.225601 0.240485
0.069779001 0.26479399 0.21096399
0.069815002 0.26577699 0.202996
0.069865003 0.26588199 0.202999
0.069959998 0.265219 0.21109401
0.070041001 0.225063 0.241236
0.070150003 0.26563001 0.21111301
0.070207 0.26574299 0.211108
0.070247002 0.215437 0.171518
0.070435002 0.028003 0.24299701
0.070662998 0.030816 0.17051201
0.070699997 0.210714 0.24363901
0.070866004 0.262918 0.204248
0.070997 0.26349699 0.20323899
0.071171001 0.262813 0.21009301
0.071234003 0.24540199 0.187473
0.071353003 0.24542201 0.187333
0.071428001 0.019331001 0.23455399
0.071491003 0.26523399 0.211272
0.071595997 0.240475 0.239664
0.071629003 0.26547 0.211115
0.071708001 0.22172201 0.175028
0.071753003 0.26502201 0.202701
0.071800999 0.23855101 0.173026
0.071893997 0.24013101 0.240191
0.071998999 0.22688299 0.17445301
0.072042003 0.26579201 0.203371
0.072123997 0.22204401 0.17420501
0.072169997 0.266139 0.20979001
0.072233997 0.245465 0.227108
0.072250001 0.26602101 0.203943
0.072301 0.23892701 0.240761
0.072347 0.227484 0.173765
0.072440997 0.24610101 0.225623
0.072490998 0.26208299 0.203421
0.072521001 0.26220301 0.203215
0.072567999 0.262344 0.20302001
0.072633997 0.26250401 0.202841
0.072755001 0.261718 0.210301
0.072801001 0.238654 0.24052
0.072922997 0.26306599 0.202443
0.072994001 0.26249 0.211459
0.073105998 0.246048 0.22624999
0.073174 0.26429799 0.211623
0.073330998 0.26306999 0.211775
0.073569998 0.247054 0.190349
0.073703997 0.247117 0.190183
0.073732004 0.247207 0.223188
0.073798001 0.263895 0.211785
0.073887996 0.26383701 0.211808
0.073925003 0.26086199 0.203124
0.073977001 0.240742 0.17564
0.074047998 0.21744099 0.174968
0.074105002 0.261388 0.202345
0.074150003 0.240596 0.238674
0.074184 0.24717601 0.18971001
0.074216999 0.260874 0.21145201
0.074313 0.26174101 0.202057
0.074353002 0.227136 0.23879901
0.074441001 0.26192701 0.20195299
0.074470997 0.22236399 0.238997
0.074538 0.247104 0.189446
0.074602 0.247932 0.222726
0.074640997 0.240952 0.237673
0.074707001 0.223225 0.23939601
0.074726999 0.262297 0.201829
0.074755996 0.215437 0.173742
0.074786 0.239208 0.239409
0.074858002 0.264734 0.204071
0.074940003 0.248017 0.22307
0.074970998 0.226714 0.177946
0.075002 0.028003 0.24074499
0.075064003 0.24851499 0.221296
0.075122997 0.248202 0.191229
0.075179003 0.25938401 0.20305599
0.075222999 0.259864 0.20209099
0.075300999 0.030816 0.241263
0.075326003 0.248 0.223373
0.075364001 0.25939199 0.211702
0.075378999 0.248888 0.19327401
0.075407997 0.26285601 0.201858
0.075484 0.260322 0.201581
0.075525999 0.247954 0.2235
0.075612001 0.26049101 0.201451
0.075723 0.248142 0.190797
0.075756997 0.26066199 0.20134801
0.075884998 0.228714 0.175372
0.075926997 0.226742 0.17732701
0.076053001 0.241199 0.236763
0.076102003 0.221826 0.177073
0.076137997 0.018208001 0.18642899
0.076171003 0.258109 0.20209201
0.076201998 0.25002 0.219716
0.076251 0.26114699 0.20120201
0.076302998 0.257952 0.212317
0.076318003 0.25786 0.21213
0.076352 0.22204401 0.176709
0.076361999 0.032513998 0.240669
0.076388001 0.258302 0.212883
0.076421 0.26129001 0.201204
0.076468997 0.262802 0.201932
0.076535001 0.26304299 0.2119
0.076563999 0.225063 0.17640001
0.076623999 0.240748 0.176608
0.076664999 0.25046 0.194162
0.076697998 0.26318201 0.21166299
0.076761 0.25031501 0.22033501
0.076797001 0.240499 0.237626
0.076825999 0.22420201 0.176018
0.076847002 0.251353 0.196116
0.076862 0.017514 0.21934301
0.076885998 0.25053301 0.19396199
0.076938003 0.249273 0.192054
0.076945998 0.24021199 0.237758
0.076962002 0.25137001 0.21855301
0.076995999 0.259022 0.213596
0.077050999 0.25160199 0.195757
0.077065997 0.23990101 0.23784199
0.077117004 0.25229201 0.216694
0.077143997 0.25270799 0.19777399
0.077166997 0.25743899 0.20010699
0.077187002 0.255227 0.200161
0.077225998 0.25261599 0.19749001
0.077252001 0.241436 0.178119
0.077272996 0.25718501 0.214127
0.077312 0.255072 0.214233
0.077347003 0.25356099 0.19868501
0.077359997 0.253838 0.198952
0.077372998 0.25968599 0.20045701
0.077404 0.25290799 0.197092
0.077427 0.26070699 0.21319
0.077453002 0.255496 0.21483099
0.077510998 0.254022 0.21591599
0.077554002 0.25283101 0.217461
0.077574998 0.26050401 0.20077001
0.07762 0.25782299 0.199744
0.077657998 0.226714 0.235043
0.077689998 0.26295701 0.210692
0.077731997 0.250278 0.220891
0.077776998 0.25611699 0.198957
0.077832997 0.25456399 0.19795799
0.077881999 0.26282299 0.20331299
0.077947997 0.239411 0.237339
0.077992 0.25804201 0.199608
0.078025997 0.25967401 0.213746
0.078074999 0.21744099 0.236403
0.078120999 0.25472701 0.19772699
0.078162998 0.25604299 0.2155
0.078275003 0.25453401 0.216654
0.078304 0.25916901 0.200039
0.078331999 0.01761 0.220192
0.078387 0.25614601 0.21561
0.078445002 0.261103 0.201088
0.078479998 0.25337699 0.196246
0.078552 0.025356 0.23702399
0.078615002 0.241414 0.235651
0.078639999 0.26127499 0.201244
0.078739002 0.22466099 0.236412
0.078815997 0.258037 0.21467499
0.078823999 0.25627601 0.215718
0.078850001 0.223225 0.236552
0.078897998 0.228714 0.23661301
0.078937002 0.215437 0.237526
0.079007 0.240968 0.235982
0.079170004 0.240686 0.17797001
0.079218 0.261722 0.21181799
0.079304002 0.240381 0.177907
0.079327002 0.261722 0.21153399
0.079403996 0.240068 0.17788801
0.079467997 0.221714 0.180571
0.07948 0.226714 0.180558
0.079658002 0.032513998 0.175595
0.079695001 0.020939 0.231189
0.079855002 0.01761 0.217104
0.079949997 0.017514 0.210245
0.080176003 0.25938001 0.21388599
0.080261 0.259312 0.213921
0.080303997 0.227136 0.179647
0.080399998 0.21904001 0.231894
0.080416001 0.242155 0.23374499
0.080499001 0.24236199 0.23327
0.080650002 0.222766 0.17926501
0.080751002 0.019331001 0.22637799
0.080796003 0.25981301 0.213425
0.080859996 0.241806 0.17998201
0.080962002 0.01761 0.20021801
0.081064999 0.24156401 0.234199
0.081182003 0.225714 0.231833
0.081311002 0.22172201 0.231958
0.081390001 0.240991 0.179738
0.081500001 0.240685 0.179738
0.081550002 0.240407 0.234267
0.081657 0.221826 0.232292
0.081859 0.01761 0.207031
0.082002997 0.25767899 0.214883
0.082180001 0.032513998 0.23625501
0.082243003 0.225063 0.232859
0.082281999 0.25777099 0.199267
0.082454003 0.018208001 0.19588099
0.082502998 0.24273799 0.23208401
0.082575999 0.22420201 0.233181
0.082641996 0.020939 0.186232
0.082731001 0.25799 0.199605
0.082782 0.225714 0.18399701
0.082939997 0.25805399 0.199825
0.083059996 0.019331001 0.222921
0.083146997 0.242036 0.181702
0.083288997 0.25807399 0.20033
0.083364002 0.25808901 0.213432
0.083433002 0.258008 0.213195
0.083486997 0.030816 0.17907999
0.083554998 0.210714 0.179012
0.083637998 0.255941 0.216032
0.083733 0.227136 0.183192
0.083921 0.25602001 0.198125
0.084007002 0.24142499 0.2317
0.084161997 0.25611901 0.19826999
0.084255002 0.022972001 0.184995
0.084262997 0.22420201 0.18274499
0.084360003 0.25623199 0.215581
0.084422 0.018208001 0.210834
0.084514 0.25493801 0.19732299
0.084619001 0.256226 0.198663
0.084660999 0.243202 0.183734
0.084772997 0.221714 0.18749601
0.084818996 0.256228 0.198899
0.084899001 0.019331001 0.194869
0.084950998 0.25624099 0.214881
0.085070997 0.244958 0.18607301
0.085124999 0.020939 0.224113
0.085162997 0.24237099 0.230297
0.085262001 0.227136 0.22893301
0.085394002 0.244807 0.22811501
0.085530996 0.025356 0.230046
0.085623004 0.226714 0.18782499
0.085662 0.244665 0.228213
0.085759997 0.22172201 0.187737
0.085859999 0.228379 0.22937299
0.085923001 0.24448 0.22828101
0.086032003 0.215437 0.183631
0.086166002 0.221826 0.18747801
0.086222 0.25480101 0.198807
0.086291 0.25438899 0.216473
0.086356997 0.252428 0.218817
0.086421996 0.028003 0.183332
0.086537004 0.22204401 0.187241
0.086634003 0.2525 0.218697
0.086676002 0.24601001 0.226166
0.086733997 0.213148 0.183092
0.086824 0.225714 0.224176
0.086886004 0.022972001 0.22513001
0.086952001 0.227484 0.186976
0.086972997 0.210714 0.182909
0.086992003 0.246796 0.188999
0.087100998 0.020939 0.193956
0.087141998 0.210714 0.183162
0.087228999 0.24569499 0.187784
0.087295003 0.22371399 0.186757
0.087402999 0.221826 0.224494
0.087463997 0.250691 0.22047
0.0876 0.21744099 0.188519
0.087706 0.24523599 0.187812
0.087783001 0.247391 0.189851
0.087806001 0.252422 0.21776301
0.087853998 0.226714 0.22041699
0.087898999 0.225714 0.192013
0.088022999 0.21904001 0.19357499
0.088030003 0.25075901 0.19381499
0.088062003 0.225706 0.191938
0.08811 0.249589 0.221598
0.088165 0.24451999 0.225869
0.088278003 0.025356 0.225934
0.088358 0.24709301 0.224268
0.088443004 0.227907 0.22506399
0.088537998 0.020939 0.19818801
0.088578001 0.22371399 0.22513799
0.088646002 0.22688299 0.19166601
0.088738002 0.249053 0.222132
0.088825002 0.215437 0.187812
0.088852003 0.24907 0.191963
0.088900998 0.24885701 0.191754
0.088904001 0.249038 0.222119
0.088964999 0.250534 0.21947999
0.088996999 0.225706 0.219918
0.089042999 0.2464 0.18997701
0.089119002 0.250397 0.219258
0.089189 0.246142 0.223959
0.089250997 0.24904101 0.192159
0.089277998 0.245897 0.22381701
0.089373 0.248601 0.19177701
0.08941 0.020939 0.202571
0.089447998 0.248555 0.222277
0.089498997 0.24896701 0.19233
0.089574002 0.227907 0.191236
0.089612 0.225714 0.19645999
0.089666001 0.248383 0.191842
0.089727998 0.228714 0.191164
0.089753002 0.248854 0.221524
0.089782998 0.248255 0.19190399
0.089786001 0.24825899 0.22216301
0.089804001 0.24823201 0.19191401
0.089845002 0.225714 0.213855
0.089851998 0.210714 0.18721899
0.089938998 0.248733 0.19272
0.089989997 0.24800199 0.22202601
0.090003997 0.24867401 0.22126099
0.090090998 0.24855199 0.221118
0.090111002 0.24783599 0.22193301
0.090112001 0.24834099 0.221578
0.090149999 0.247749 0.19218799
0.090198003 0.24766099 0.19224399
0.090237997 0.24828599 0.22103401
0.090242997 0.225601 0.196265
0.090268999 0.24818499 0.192928
0.090294003 0.247665 0.22159
0.090305999 0.24774 0.192531
0.090309002 0.24804699 0.221269
0.090415999 0.22172201 0.215343
0.090473004 0.22466099 0.220486
0.090553001 0.227907 0.22051699
0.090663999 0.225383 0.196134
0.090699002 0.221714 0.207031
0.090801999 0.227136 0.196091
0.090930998 0.032513998 0.18940599
0.091022 0.225063 0.196023
0.091049001 0.215437 0.22174001
0.091135003 0.227484 0.195988
0.091213003 0.225706 0.21062
0.091314003 0.22204401 0.21555699
0.091367997 0.221826 0.200987
0.091384999 0.226742 0.210637
0.091449998 0.24555799 0.218044
0.091475002 0.24518099 0.21835101
0.091503002 0.028003 0.221928
0.091545001 0.226742 0.205827
0.091692001 0.225601 0.210668
0.091853999 0.22688299 0.210684
0.091890998 0.244435 0.197776
0.091985002 0.24414501 0.215868
0.092055 0.025356 0.21681599
0.092129 0.22420201 0.21575101
0.092145003 0.032513998 0.222194
0.092173003 0.225063 0.20085099
0.092243001 0.21744099 0.211863
0.092294998 0.22204401 0.20580199
0.092375003 0.24289501 0.21484999
0.092439003 0.227136 0.205797
0.092537999 0.227907 0.200789
0.092634 0.24215899 0.21146099
0.092665002 0.215437 0.216979
0.092689 0.22371399 0.200764
0.092716999 0.241485 0.20089
0.092786998 0.222766 0.210778
0.092872001 0.227907 0.210787
0.092963003 0.24065299 0.202545
0.092978999 0.240825 0.211207
0.093016997 0.240751 0.20372801
0.093039997 0.227907 0.205777
0.093131997 0.223225 0.20577399
0.093144998 0.23997 0.20449901
0.093162999 0.23989999 0.20487
0.093180999 0.239831 0.205238
0.093216002 0.239692 0.205974
0.093342997 0.025356 0.207031
0.093615003 0.210714 0.196198
0.093718 0.030816 0.217261
0.093975 0.215437 0.207031
0.094522998 0.213148 0.212163
0.094821997 0.210714 0.201859
0.094921999 0.210714 0.20337901
