-51.333 -174.031 -81.0329 0.292726 0.673408 0.678847 2.57108
-153.653 8.25739 -44.9982 0.210175 0.94038 -0.267416 0.978213
103.469 224.981 -147.287 0.544417 -0.174351 0.820495 2.30679
88.5884 308.916 16.3015 0.987731 -0.154064 -0.0255456 2.39421
138.181 206.018 -96.3881 -0.0494119 -0.0872637 0.994959 3.04615
-156.76 -115.63 207.787 -0.831506 0.345339 -0.43513 1.63833
77.6987 -211.422 -22.2171 0.0424642 0.682746 0.729421 3.04098
302.488 42.0018 213.703 0.762078 0.0571709 -0.644956 3.79991
362.428 8.38412 63.6907 -0.487906 -0.0973295 0.867453 2.23414
289.614 178.889 -15.8491 -0.472888 0.00517355 0.881107 2.9374
99.0561 10.817 340.732 -0.0261483 0.875921 -0.481746 3.11512
-159.432 -174.412 116.16 -0.0148318 0.999731 -0.0178474 1.61482
-156.165 120.749 183.04 0.50867 -0.495353 0.704187 4.05358
-42.1388 -239.4 228.603 -0.996145 0.0377962 -0.0791581 1.38011
26.825 -159.91 308.436 0.953551 0.287113 -0.0911426 4.24791
318.483 -142.795 147.518 0.715826 -0.364993 -0.595293 4.1086
347.592 -70.32 91.8858 -0.645675 0.343793 0.681843 2.44509
9.03785 -330.355 -42.6589 -0.206341 0.842262 0.498014 1.22757
-78.937 261.822 77.9105 0.196371 -0.428892 0.881754 3.70399
147.344 -221.298 -141.222 -0.0294114 -0.999152 0.0288305 0.742444
-140.045 196.084 122.775 0.306999 -0.397879 0.864548 3.81216
-69.6295 231.848 -134.708 0.769444 0.0483607 0.63688 2.44413
119.184 -245.881 -186.208 0.0258996 0.464749 0.885064 1.1206
237.614 -106.278 269.834 0.780919 0.311245 -0.541565 4.29064
-54.9029 277.913 -64.7065 0.749468 -0.0751697 0.657759 2.6676
254.858 187.614 157.508 0.158217 -0.631155 0.759349 2.54273
44.0562 -220.951 128.722 0.454749 0.821049 0.345083 3.55216
-50.3124 -262.103 213.599 -0.555236 0.830476 -0.044964 1.56403
63.175 21.9298 -172.738 0.494878 -0.437967 -0.75052 0.741846
280.878 158.914 143.036 0.711813 0.0410825 -0.701167 3.40275
252.486 -122.872 225.771 0.304335 0.861224 -0.40703 4.20143
212.966 -282.679 -45.1987 -0.0653264 -0.997781 0.0128388 1.24278
151.592 128.571 281.762 -0.357458 0.790129 -0.497916 3.10005
182.486 -260.217 225.216 0.0442746 0.998671 -0.0263822 3.68421
179.793 210.474 -127.338 -0.136356 -0.0306896 0.990184 3.02038
127.628 -258.261 236.706 -0.342883 0.933694 0.10318 2.49871
-151.475 67.0989 -215.604 0.709644 0.413361 0.57056 2.11095
-59.8238 99.4329 -97.2741 0.94609 0.157508 0.283028 1.19384
85.8102 -41.7797 377.771 0.890768 0.332357 -0.309953 3.85818
-115.802 -73.9831 189.602 0.320396 0.940967 0.109216 2.21522
72.001 295.655 -85.969 0.988086 -0.122655 -0.0929669 2.12301
97.4926 135.203 173.827 0.780207 0.413956 -0.468953 2.58273
236.356 -62.0321 -163.964 -0.28806 0.544658 0.787635 3.34419
-111.101 174.466 -63.4001 0.918239 0.200396 0.341582 1.907
116.068 307.107 -16.7129 0.962469 -0.103989 -0.25068 2.44065
236.394 -247.865 166.34 -0.00972434 0.999187 -0.0391291 3.89175
49.2313 121.375 305.795 -0.160179 0.813237 -0.559454 2.88938
187.314 140.636 11.9826 -0.643152 -0.0659527 0.762893 3.9123
-63.8668 126.51 279.736 0.705113 -0.48888 0.513626 3.73415
240.097 -222.345 -125.156 -0.234939 0.627569 0.742268 2.34526
86.3223 -280.229 -150.568 -0.183827 0.117966 0.975854 0.443767
315.857 -177.574 123.406 -0.349906 0.930396 0.109219 3.54821
-123.762 -44.026 -86.377 0.113168 0.993358 -0.0207983 0.635439
163.13 73.4028 332.229 0.827273 -0.556251 0.0787671 3.43239
126.54 267.854 170.629 0.950236 -0.0624963 -0.305197 2.82421
299.889 44.2529 -119.909 -0.539435 0.479102 0.692438 3.56408
75.9062 -339.978 82.2001 -0.391441 0.837336 0.381632 1.64489
226.147 165.628 -150.299 0.317807 -0.227063 0.920566 2.12223
152.159 253.969 -4.87476 0.609849 -0.380456 0.695225 2.34772
-106.44 60.7912 -56.361 0.840209 0.539781 0.0518292 0.930039
-0.925369 227.788 -176.084 0.837474 0.0055168 0.546449 2.07841
-54.9747 -0.228445 315.18 0.894609 -0.343552 0.28574 3.96248
226.249 -47.4706 308.168 0.107189 0.906541 -0.408282 3.76272
-106.386 -14.6112 297.843 0.978521 0.0272149 0.204341 3.92036
214.923 15.4017 319.336 0.85168 0.13988 -0.50505 3.84551
219.992 166.346 220.807 0.0362102 -0.687725 0.725067 2.73334
318.315 15.3715 181.261 0.790909 -0.494729 -0.360148 3.38008
-63.9469 278.836 23.7911 0.762931 -0.153429 0.62801 2.91724
41 -172.432 -143.093 0.159943 0.60256 0.781882 2.50372
256.582 -120.546 252.359 -0.637208 0.756223 0.148632 2.7063
98.4502 -305.978 42.2133 -0.623307 -0.781805 -0.0163927 1.09962
321.195 -139.806 -47.5022 -0.415006 0.38375 0.824928 2.19425
333.149 55.2335 144.851 0.734358 -0.117424 -0.668528 3.65746
-204.119 -181.916 176.976 -0.495527 0.748082 -0.441392 1.27182
274.413 -232.268 84.7695 -0.728778 0.280785 0.624534 1.59173
156.794 111.943 -71.1784 0.782601 -0.610807 -0.120212 1.31226
-167.587 179.437 208.688 0.672752 -0.327168 0.663601 3.79205
300.346 -225.186 47.271 -0.0324503 0.990755 -0.131728 4.50425
73.1779 30.8503 334.554 -0.435499 0.825847 -0.358214 2.67318
193.005 196.544 -143.644 0.417183 -0.244054 0.87544 2.17403
170.8 181.456 262.84 0.895711 -0.440056 0.0636601 3.07906
-189.558 -72.7805 248.144 0.815849 -0.307119 0.489968 4.45164
71.8023 288.02 -77.2544 0.959185 -0.185574 0.213371 2.10772
-137.141 -88.039 165.142 0.759496 0.556574 0.336736 2.84865
-108.861 144.266 2.30294 0.929227 0.216452 0.299474 1.8161
193.04 128.12 95.1141 0.766287 0.0586669 -0.639815 2.54562
208.178 -251.146 204.929 0.29041 0.939054 -0.183956 4.32336
-11.5889 -316.886 -6.5174 -0.941256 -0.293079 -0.167758 0.647197
258.066 170.227 180.636 0.815432 -0.0285683 -0.578148 3.33165
29.3404 -199.263 -98.6447 0.180961 0.66971 0.720237 2.69835
37.0106 215.878 226.116 0.642229 -0.529752 0.55399 3.23274
-62.6697 15.4839 -149.233 0.607965 0.562829 -0.560002 0.472919
269.7 66.9685 222.245 0.358975 0.662744 -0.657197 3.82971
248.704 -63.174 5.71411 -0.373259 0.621753 0.68855 3.79753
199.735 230.867 138.494 0.808003 -0.52298 0.271337 2.69151
270.486 36.7016 246.576 -0.339109 -0.650407 0.679688 2.38419
-130.303 -209.101 -125.468 0.42558 0.681134 0.595768 2.22503
332.262 98.6364 106.081 -0.0258529 -0.570165 0.821123 2.11403
232.166 15.3106 274.434 0.55162 0.597151 -0.582345 3.87561
129.624 20.1575 -137.586 0.456357 -0.606954 -0.650649 1.03586
311.785 -162.804 -87.6624 0.123798 -0.844874 0.520445 1.18374
202.277 85.9815 277.914 0.223061 0.75978 -0.610719 3.53768
206.496 104.055 266.284 0.277872 0.715039 -0.641488 3.56678
-31.8085 -285.676 -130.531 -0.529341 0.81448 0.237529 0.234561
111.74 -73.542 -307.891 0.132699 0.438788 0.888738 2.4071
291.867 173.894 9.24985 -0.398399 -0.110201 0.910568 2.78943
215.308 -230.037 203.024 -0.615852 -0.671167 0.412627 1.65762
-90.1616 -152.845 -78.5554 0.560254 0.301978 0.771314 3.81914
288.841 42.4015 -178.535 0.74568 -0.653024 -0.13237 1.6747
102.878 137.083 295.885 0.94179 -0.332612 0.0490008 3.53436
-87.3009 150.528 -12.7317 0.938396 0.163501 0.304436 1.75037
201.874 108.211 130.771 0.850093 -0.232796 -0.472386 2.53522
326.309 -3.73306 192.699 0.801559 -0.339304 -0.492317 3.68392
-24.2323 142.841 185.567 0.917957 0.349465 -0.187693 2.28325
303.744 -182.137 87.2166 -0.608304 -0.314283 0.72883 1.45968
16.509 215.283 -75.6842 0.997609 0.000140434 0.0691082 1.63294
170.695 112.347 -225.932 0.549498 -0.144707 0.822868 1.74783
161.115 146.599 101.5 0.709075 0.275682 -0.649009 2.56857
-25.6507 252.281 167.63 0.856454 -0.262469 0.444519 3.12475
289.509 -67.4748 234.113 -0.325407 0.925784 -0.192443 3.56283
229.005 -188.899 -166.638 0.267799 -0.941347 0.205305 0.952337
0.603088 -356.436 27.9153 -0.114072 0.925925 0.36007 1.86532
-108.605 11.5776 190.943 0.944277 0.254582 0.208635 2.86558
172.751 42.0413 -254.804 0.757796 -0.268974 0.594473 1.28777
-7.05729 117.886 190.112 0.734274 0.605085 -0.307755 2.38903
364.28 -17.8841 53.9232 -0.446012 -0.149609 0.882434 2.10786
162.348 -188.557 219.768 -0.875108 -0.347972 0.336307 1.69514
-3.11487 283.61 -46.0874 0.649347 -0.18133 0.738558 2.74947
127.552 -54.662 -161.021 0.100681 -0.607917 -0.787591 1.24454
216.653 -305.292 75.6749 -0.253144 0.904315 0.343704 2.88977
340.138 -119.066 50.3465 -0.207424 -0.688403 0.695038 1.52258
-21.3568 -74.2829 238.848 0.260919 0.964651 0.0370037 2.68202
-207.727 -82.4216 244.071 -0.320243 0.79535 -0.514648 1.70749
353.112 -107.279 -74.8851 -0.499925 0.469148 0.727994 2.49015
257.766 -147.421 230.982 -0.514817 -0.678114 0.524523 1.9001
323.817 142.551 -42.7036 0.781091 -0.530569 -0.329232 2.28938
-121.719 79.6142 126.669 0.462909 0.85461 -0.235279 1.86549
206.936 -258.874 180.308 -0.254616 0.956078 0.14521 3.04506
-82.049 55.8987 192.55 0.447178 0.874458 -0.188031 2.23053
-59.8546 -152.423 331.581 0.958256 -0.236605 0.160511 4.40221
338.158 -132.325 17.7158 -0.255865 0.95786 -0.130524 4.41113
-100.035 126.425 272.747 -0.246271 0.708911 -0.660905 2.4425
-154.062 -236.824 55.5839 -0.684265 0.573259 -0.450728 0.866719
232.653 215.033 85.8775 0.413384 -0.583987 0.698622 2.51481
-133.012 -27.4485 181.038 0.530113 0.844556 0.0755323 2.18789
274.689 -49.1052 251.822 -0.529725 0.845802 -0.0633265 3.18588
290.001 -106.118 -164.233 -0.30846 0.614686 0.725957 3.21605
-166.47 8.3441 22.5396 0.627658 0.753892 0.194145 1.36212
357.126 -147.63 -58.566 -0.282517 -0.207315 0.936592 1.50818
326.065 -7.6372 171.366 -0.476351 0.864858 -0.158463 3.67744
208.032 -189.67 254.485 -0.266681 0.963713 -0.0118142 3.13359
-47.7446 -333.209 53.7506 -0.219678 0.945548 0.24017 1.43316
363.412 -10.9245 -63.3109 -0.557791 0.543928 0.626907 3.23685
-170.076 -223.703 158.941 -0.464479 0.834771 -0.295665 1.26384
307.74 -163.602 155.268 -0.370623 0.925369 0.0795667 3.449
112.534 -19.2601 -281.23 0.454843 0.17654 0.872898 1.59331
-24.067 152.889 -231.719 0.72719 0.141453 0.671703 2.03782
34.9841 -242.654 264.351 0.957366 0.268184 -0.107368 4.65935
259.53 221.109 -6.63816 0.791693 -0.253515 -0.555834 2.69149
75.0905 -45.7935 348.271 0.908066 -0.418785 0.00596521 4.06586
271.214 -47.711 -1.18927 -0.450097 0.603356 0.658312 3.76148
146.275 217.933 221.973 0.958293 -0.28203 -0.0461995 3.03011
49.2346 189.465 -193.848 0.357008 -0.000938354 0.934101 2.65792
298.58 -83.7264 203.909 0.781391 -0.0683026 -0.620293 4.18127
63.5506 -168.615 -250.9 0.652346 0.119694 0.74841 0.628275
-17.9396 -150.865 310.173 0.904916 -0.405719 0.128531 4.37215
317.976 20.5607 185.49 0.00119479 0.788084 -0.615566 4.04417
320.819 19.6739 188.565 -0.553975 0.821962 -0.132249 3.54395
312.543 -119.562 -117.512 0.220045 -0.742251 0.632964 1.19077
336.469 -11.828 -112.138 -0.515507 0.520018 0.681053 3.31307
203.187 97.8354 278.049 0.238785 0.748991 -0.618057 3.51587
341.399 120.764 58.5857 0.782185 -0.44703 -0.433994 2.92899
-4.44565 -305.314 215.285 -0.838854 0.534422 0.103519 1.26168
343.927 49.4644 -67.4187 0.245761 -0.56148 0.790153 1.70419
224.771 -132.287 -16.1033 -0.261315 0.6628 0.70172 3.58459
349.944 24.9125 -31.27 -0.46975 0.795302 -0.383185 4.47984
140.824 185.858 265.291 -0.0954207 -0.701944 0.705811 3.00336
297.353 102.835 -151.369 -0.586622 0.457401 0.668325 3.70568
161.508 -296.59 170.33 -0.468046 0.832542 0.296321 2.12913
-11.4821 -124.043 -209.956 0.272313 0.545923 0.792347 2.55737
0.582762 181.97 265.586 0.879227 -0.344645 0.328907 3.36399
-101.285 -175.766 228.184 -0.963975 0.12491 -0.234842 1.57009
175.332 283.148 -5.81862 0.952856 -0.288341 -0.0944715 2.33562
185.036 136.876 267.915 0.152842 0.748346 -0.645459 3.4054
211.767 236.204 187.259 -0.209791 -0.389435 0.896843 2.77563
-35.0051 83.2243 314.537 -0.0731551 0.812658 -0.57813 2.64947
279.381 -155.455 200.983 0.367476 0.787407 -0.494926 4.40121
197.741 -125.539 314.924 0.913785 -0.128864 -0.385215 4.26555
228.211 133.379 237.504 0.826814 -0.559859 0.0541838 3.09717
340.095 -146.704 71.2868 -0.378648 0.919968 0.101418 3.80726
12.8046 226.414 212.886 0.830489 -0.363006 0.42251 3.20799
117.505 16.9935 241.367 0.956393 -0.0273558 -0.290801 3.10078
190.57 -48.0873 303.715 0.4902 0.740831 -0.45921 3.8637
-12.7124 44.7768 357.723 0.151252 0.874528 -0.460785 2.79862
53.2988 -199.399 325.331 0.753217 -0.656215 -0.0452211 4.39143
106.217 -299.025 189.658 -0.903021 -0.354806 0.24221 1.35821
177.58 -94.4974 -96.6861 -0.200753 0.289689 0.935831 3.09748
183.388 -163.203 -10.2328 -0.157604 0.67495 0.720835 3.4283
31.672 -350.772 8.76405 -0.411586 0.791043 0.452601 1.14944
51.3008 -305.393 47.1991 -0.872466 -0.488134 0.0229962 0.99108
