116.454 -93.0317 326.766 0.826577 0.466305 -0.315166 4.14632
-113.446 250.643 89.2708 0.431552 -0.378232 0.818965 3.6357
20.674 316.066 189.438 0.43767 -0.56342 0.700716 3.31178
238.655 -188.47 -76.5182 0.0786509 -0.996791 -0.0148867 1.30839
-72.4277 -108.705 -239.331 0.547794 0.6174 0.56457 1.30879
79.0189 202.885 295.656 0.983067 -0.0209274 -0.182046 3.27452
267.324 -193.775 24.3608 -0.514073 0.216643 0.829937 1.44984
-72.0651 224.129 236.3 0.883746 -0.232168 0.406313 3.4655
-63.8884 -222.585 210.421 -0.712958 0.698504 -0.0615117 1.361
113.445 326.438 -62.6191 0.490582 -0.282215 0.82443 2.56788
58.1484 -201.452 247.459 0.991018 -0.0538056 -0.122425 4.67352
-57.3138 113.23 343.37 -0.205242 0.842824 -0.497517 2.49332
30.6672 321.42 -31.7499 0.60004 -0.235681 0.764465 2.69272
324.142 -52.7643 161.993 0.153065 0.821429 -0.549386 4.3948
333.454 -112.085 65.0277 -0.573759 0.577531 0.58074 2.49302
106.388 -167.883 -39.6069 0.29329 0.743354 0.60117 4.18056
295.676 59.447 251.908 -0.113648 0.864668 -0.489319 3.89488
118.908 -247.908 177.971 -0.791433 -0.571615 0.216541 1.42733
141.875 300.361 169.059 0.296294 -0.578117 0.760257 2.90344
-153.674 229.163 -70.9244 0.626079 0.0741431 0.776227 3.06245
188.102 185.453 -79.4977 0.854855 -0.374182 -0.35946 1.72258
-47.045 -215.861 -172.017 0.267565 0.730313 0.628531 2.3021
115.55 272.828 -153.509 0.000551333 -0.0429804 0.999076 3.07903
-49.1588 -44.9443 215.572 0.858972 0.493492 0.136498 3.2309
167.946 -229.044 106.587 -0.820615 -0.39225 0.415609 1.16449
158.625 -54.8391 -122.814 -0.028496 -0.767042 -0.640964 1.36147
128.779 -207.816 -166.626 -0.0562133 0.102411 0.993153 0.638953
50.9956 -111.883 311.73 -0.423466 0.899358 -0.108776 2.31645
223.104 280.81 115.267 0.722094 -0.56739 0.395788 2.60098
157.618 185.003 280.401 0.173894 0.712346 -0.679944 3.37349
88.9134 48.3988 337.189 0.830252 -0.549419 0.093918 3.88401
218.733 177.122 -191.26 0.871644 -0.452774 0.187701 1.56273
244.797 3.71478 -40.1203 -0.427237 0.294695 0.854765 3.34858
244.447 132.525 256.854 0.807487 -0.58982 -0.00882285 3.22949
128.031 -43.1867 -269.037 0.826889 -0.498593 0.260114 0.782607
229.046 103.783 -211.51 0.76807 -0.546049 -0.334514 1.6671
341.105 132.15 -1.76913 -0.493815 0.743351 -0.451194 4.3264
20.004 -201.943 -140.254 0.145739 0.718712 0.679862 2.09239
269.74 -145.916 -164.355 -0.286207 0.886329 0.364016 4.33448
147.159 120.36 303.3 -0.425959 0.793925 -0.433869 3.08326
248.407 220.331 174.591 -0.498174 -0.34684 0.794685 2.77217
224.705 257.732 105.071 -0.203393 -0.376827 0.903677 2.81229
311.556 -129.721 121.108 -0.0889309 0.978083 -0.18827 4.2055
323.712 137.333 132.43 -0.180598 0.71358 -0.676896 4.10186
299.382 140.367 -96.2827 -0.0599505 -0.132384 0.989384 2.19874
360.646 79.6301 66.1768 -0.651323 0.228821 0.723478 2.64433
339.349 -38.7891 137.936 -0.50404 0.858945 0.0903201 3.49242
236.567 -253.487 30.4704 -0.656546 -0.0875679 0.749186 1.14086
322.545 -122.985 8.31184 -0.160999 0.975515 -0.149829 4.54957
49.533 199.953 285.113 -0.595594 0.627255 -0.501815 2.86514
108.497 70.6585 338.434 0.0212442 0.895795 -0.44396 3.18073
155.885 24.8317 333.922 0.382151 0.808457 -0.447614 3.62641
353.662 34.2961 81.4849 -0.10749 -0.663062 0.740807 1.84001
318.761 154.195 -73.7932 0.675617 -0.67987 0.285163 1.85343
174.162 -186.46 230.497 -0.837509 0.392841 0.379809 1.69969
168.109 314.789 -9.97467 0.58981 -0.413276 0.693778 2.44028
297.019 184.574 -97.3423 -0.53229 0.259953 0.805662 3.25487
-59.2539 -233.288 183.523 -0.430252 0.90258 0.015266 1.57205
152.709 -182.99 -180.602 -0.0341907 0.478039 0.877673 1.42232
248.255 -131.037 -74.0049 -0.237807 0.695693 0.677834 3.58378
278.848 217.577 -80.7046 0.412237 -0.447466 0.793621 2.01229
322.72 173.91 80.6208 -0.297813 0.712199 -0.635674 3.90828
-81.2216 -135.051 281.199 -0.15018 0.981039 -0.12251 2.1295
4.50535 230.475 278.646 0.00084607 0.712428 -0.701745 2.83547
118.807 180.127 168.639 0.804813 0.335467 -0.48963 2.62322
-140.749 -96.0773 260.725 -0.692936 0.620785 -0.366694 1.65995
146.448 -197.342 245.557 -0.34149 0.932893 0.114431 2.60411
129.753 -241.379 -92.4142 -0.404102 -0.831032 0.382214 0.569052
124.299 269.267 -154.91 -0.00207085 -0.0396727 0.999211 3.04595
281.656 -54.0237 232.892 0.827397 -0.0852525 -0.555109 4.19996
155.374 -211.402 220.674 -0.438456 0.881193 0.176789 2.36632
278.128 -215.71 -20.1358 -0.309094 0.810201 0.498032 2.9382
304.411 195.446 55.5533 -0.653255 0.0770491 0.753207 2.96438
10.4266 12.0863 342.491 0.993879 -0.110332 0.00558581 4.10836
42.5816 -238.623 -81.8999 0.0673305 0.768421 0.636392 2.49667
175.502 214.436 251.071 -0.24608 -0.633905 0.733219 2.87042
218.269 291.141 -12.1671 0.637517 -0.482326 0.600777 2.28171
301.47 138.196 -109.35 0.442781 -0.531942 0.721792 1.70408
310.941 207.464 -22.743 -0.674291 0.267992 0.688122 3.30738
-65.943 237.071 237.666 0.470026 -0.566585 0.676799 3.63938
219.417 160.349 -83.4432 0.81692 -0.447544 -0.363794 1.75193
343.011 -19.9246 124.771 -0.0165405 0.855657 -0.517279 4.33916
-64.7853 204.548 275.753 -0.164908 0.714333 -0.680098 2.58672
345.915 -36.9345 63.8186 -0.25445 0.936463 -0.241436 4.30389
185.842 48.764 -307.119 0.552151 -0.10763 0.826768 1.40399
-130.795 124.995 113.797 0.475408 0.853301 -0.214162 1.79636
243.652 294.484 -33.0292 0.884142 -0.461682 0.0717179 2.21121
-98.6406 -205.438 -157.523 0.324011 0.793587 0.515011 1.71301
280.591 -164.441 137.515 0.264051 0.89429 -0.361279 4.55952
219.559 -164.73 225.263 0.334583 0.900199 -0.278741 4.30606
51.1467 206.03 -62.7477 0.980213 -0.194369 -0.0374522 1.38629
-9.5204 166.884 315.288 0.998451 0.0439156 -0.0341677 3.4688
-90.0143 45.352 300.333 0.982219 0.0637741 0.176573 3.90865
67.2322 -211.874 41.9094 0.0327202 0.783878 0.620052 2.95159
328.667 -8.11601 168.968 -0.00556226 0.872193 -0.489131 4.18642
360.349 79.5208 56.0015 -0.344348 0.816448 -0.463505 4.27979
307.755 130.16 -139.871 -0.535011 0.43243 0.725787 3.47967
251.025 260.51 -36.7486 0.442978 -0.463273 0.76756 2.21465
91.8333 -298.593 -79.1868 -0.692885 -0.0872518 0.71575 0.491349
106.382 -254.078 -1.67106 -0.751677 -0.593684 0.287264 0.73065
15.2803 189.9 177.634 0.881261 0.374492 -0.288331 2.38192
-78.6576 -191.682 218.409 -0.499542 0.857734 -0.121447 1.58839
-132.87 -71.5392 220.337 0.805459 -0.415874 0.422238 4.49502
29.0438 -280.924 109.111 -0.266261 0.922683 0.278857 1.87116
32.9016 -56.6373 330.13 0.710643 -0.692945 0.121714 4.15588
279.732 119.477 221.548 0.852776 -0.462423 -0.242771 3.31181
175.708 -155.896 259.293 -0.17963 0.982714 -0.0447907 3.13652
77.1452 -54.9632 -135.707 0.0616191 0.319494 0.945583 3.33912
-71.9125 311.791 -59.048 0.553138 -0.114226 0.825222 3.0567
-52.5297 -13.5168 224.614 0.83353 0.544405 0.0940804 3.03643
286.374 202.294 134.667 0.713642 0.00986304 -0.700441 3.40695
316.7 -49.312 -197.835 0.0240527 -0.0954574 0.995143 1.477
48.8693 -189.69 -170.701 0.159803 0.667324 0.727422 2.12731
-17.9266 -232.518 189.868 -0.574979 0.816304 0.055203 1.50445
349.06 -110.297 5.70952 -0.593224 0.494194 0.635498 2.3137
366.658 37.4524 80.8754 -0.404302 0.870599 -0.280352 4.13104
249.568 -62.0119 260.747 -0.665123 0.731807 0.148563 2.66428
279.858 -71.2434 251.889 -0.110151 0.960133 -0.256929 3.85344
175.499 198.967 20.1513 -0.614642 -0.16412 0.771544 3.85983
110.672 -213.474 -160.523 -0.082168 0.331006 0.940044 0.740639
278.16 223.468 127.284 0.74058 -0.0247474 -0.671512 3.30369
-73.4341 -239.18 78.6793 -0.967529 0.0672369 -0.243652 0.912106
237.468 -170.97 194.582 -0.110228 0.993647 -0.0227059 3.62043
342.928 -23.9825 121.011 0.687356 -0.237772 -0.686299 4.03195
197.566 274.602 -85.8935 -0.200972 -0.0916374 0.975301 3.0271
99.4538 225.145 272.067 0.969023 -0.246952 0.00298122 3.28449
205.769 170.166 296.521 0.889851 0.00216668 -0.456247 3.51169
134.32 -220.451 218.139 -0.910694 -0.258164 0.322472 1.46134
-145.514 220.237 191.562 0.746948 -0.275487 0.605124 3.63527
-82.1055 199.555 35.5065 0.573007 0.662153 -0.482925 1.6037
-28.8467 -267.866 122.521 -0.345964 0.924037 0.162679 1.53877
-82.3454 -196.42 -175.056 0.329751 0.768373 0.548513 1.65937
61.8425 -37.1541 -172.44 -0.192745 -0.487676 -0.851482 1.09315
254.175 131.432 244.942 0.876999 -0.436059 -0.201804 3.35139
-78.1569 295.542 150.569 0.903613 -0.135986 0.406191 3.11272
7.95249 162.079 310.324 -0.234665 0.772022 -0.590689 2.75335
177.905 139.854 -247.603 0.847782 -0.376529 0.373486 1.4125
-157.357 135.529 259.495 0.395184 -0.644637 0.654425 4.07278
-52.1234 230.294 190.579 0.206197 -0.610232 0.764918 3.67659
-14.2487 213.544 228.204 0.153137 -0.682792 0.714384 3.54715
-109.774 -221.87 -54.0029 -0.0921401 0.983875 0.153296 0.83233
219.341 -25.7795 -243.858 -0.158846 0.513611 0.843192 2.98886
13.5999 338.969 13.2974 0.775789 -0.236977 0.584802 2.68941
-42.1756 152.964 334.492 0.997435 0.0705352 0.0121637 3.50039
36.7431 287.276 211.999 0.925874 -0.281739 0.251754 3.10317
125.072 305.713 -105.17 0.919643 -0.24834 0.304276 1.98976
177.927 93.1934 336.034 0.189624 0.791035 -0.581641 3.52961
177.691 -259.091 -0.804645 -0.396992 0.664744 0.632861 1.6932
225.476 273.618 -11.6081 -0.465162 -0.0104361 0.885164 3.23083
234.632 165.542 266.594 0.818088 -0.574661 0.0222968 3.11027
-17.7285 338.956 61.6535 0.680014 -0.278455 0.678265 2.95626
142.86 324.828 -79.9282 0.963067 -0.267904 -0.0270199 2.07654
15.6703 -14.617 -285.819 0.686925 0.305098 0.659583 1.24421
-84.5372 -112.565 291.494 -0.151182 0.971679 -0.181615 2.16964
157.488 -152.767 269.636 0.914719 0.17003 -0.366576 4.56644
52.033 -255.312 195.081 -0.31877 0.936378 0.146907 2.08964
17.3169 141.077 357.025 0.977501 0.14351 -0.154583 3.51234
306.345 -88.7376 -111.499 0.247326 -0.864079 0.438404 1.2113
236.922 229.343 -49.5826 -0.334504 -0.0392255 0.941577 3.02439
323.965 -155.803 69.8227 -0.5814 -0.171102 0.795423 1.51516
-168.807 59.9528 265.306 -0.393615 0.713152 -0.58007 2.0338
-151.053 -96.7263 262.51 -0.814638 0.437041 -0.381261 1.63911
181.223 74.951 303.243 0.874801 0.165334 -0.455399 3.7181
-82.8864 -269.295 -13.923 -0.182663 0.957112 0.224881 1.06239
193.446 186.796 35.6281 -0.679134 -0.0316496 0.733332 3.88766
220.199 -73.708 -215.957 0.0570759 0.203544 0.977401 1.55313
41.2147 256.937 237.34 0.591287 -0.565847 0.574628 3.27723
305.088 173.431 -110.7 0.770002 -0.633045 0.0796898 1.85678
311.419 -187.332 -21.1007 -0.370005 0.839681 0.397533 3.21886
-113.26 -118.936 7.05927 0.593641 0.474397 0.65003 3.27823
192.836 -75.841 -231.773 0.245447 0.0509041 0.968073 1.1714
313.015 139.905 -95.1652 -0.264264 0.0259151 0.964102 2.50613
4.7255 -221.17 233.115 -0.726729 0.685132 0.0495956 1.56949
216.628 302.325 42.7109 0.769896 -0.128949 -0.625005 2.70792
50.9194 119.267 316.577 0.71896 -0.602103 0.347229 3.60071
151.039 -169.307 255.707 0.858745 0.398033 -0.322687 4.48389
112.421 -56.6451 -268.474 0.0652932 0.508885 0.858355 2.64841
356.124 -87.8541 21.3045 -0.425074 0.888498 0.172867 3.85834
47.7752 -110.663 346.038 0.95783 0.234655 -0.165828 4.38089
343.34 -40.9039 58.4454 -0.370988 -0.463149 0.804898 1.60881
351.248 -3.29341 69.8533 -0.11525 0.826335 -0.55126 4.46546
-164.913 61.8511 265.561 0.705696 -0.466231 0.533499 4.21605
275.88 -30.2336 245.367 0.826851 0.00522441 -0.562397 4.16516
-69.7947 -230.652 164.652 -0.343135 0.939247 0.00860366 1.57691
9.4894 -264.456 -76.8768 -0.49517 0.667051 0.556642 0.537324
282.543 40.3624 241.728 0.747239 -0.650391 -0.136472 3.35237
330.19 144.49 -0.978211 -0.347952 -0.117607 0.930107 2.44191
322.851 -127.273 98.0272 -0.549023 -0.194586 0.812841 1.62296
-58.5126 180.663 239.35 -0.292205 0.682811 -0.669616 2.53951
236.077 -142.826 -153.612 0.18827 -0.891093 0.412925 0.886368
-30.0594 -275.96 -41.8631 0.0982077 0.865269 0.491594 2.13705
341.924 43.4751 127.318 -0.339619 0.882869 -0.324347 4.12013
184.46 -23.0122 -87.4824 -0.213624 0.201754 0.955856 3.03364
-134.181 52.9727 177.263 0.894513 0.368969 0.252404 2.73429
-47.3167 306.25 62.9392 0.230539 -0.360318 0.903893 3.47219
352.776 5.67226 121.12 -0.301121 0.902392 -0.308244 4.08968
120.251 314.713 -94.138 0.486883 -0.246653 0.837918 2.48981
283.37 -166.132 16.4927 -0.392751 -0.632656 0.667453 1.1863
222.956 229.569 154.844 -0.520019 -0.319279 0.792238 2.92392
323.546 39.9621 -156.236 0.642794 -0.72875 -0.236093 1.87182
