# .PCD v0.7 - Point Cloud Data file format
VERSION 0.7
FIELDS x y z
SIZE 4 4 4
TYPE F F F
COUNT 1 1 1
WIDTH 1463
HEIGHT 1
VIEWPOINT 0 0 0 1 0 0 0
POINTS 1463
DATA ascii
-0.018041 0.19490001 -0.040511001
-0.018011 0.043683 0.062139001
-0.017984999 0.22438601 0.015424
-0.017959001 0.043784 0.062116999
-0.017907999 0.043880001 0.062073998
-0.017816 0.044062998 -0.059204001
-0.017793 0.051431999 -0.057799
-0.017744999 0.04414 0.061737001
-0.01771 0.044241 -0.05903
-0.017703 0.223472 0.034134999
-0.017603001 0.198744 -0.041014999
-0.017557001 0.1943 -0.039361998
-0.01746 0.19412801 -0.039294001
-0.017442999 0.224188 0.034134999
-0.017356001 0.044884998 -0.05869
-0.017298 0.246004 -0.0023670001
-0.01723 0.045019999 -0.059439
-0.017144 0.051079001 -0.060433999
-0.017016999 0.223222 -0.017002
-0.016834 0.189174 0.040040001
-0.016736001 0.217436 -0.038152002
-0.0167 0.188383 0.039400999
-0.016576 0.223873 -0.032533001
-0.016548 0.229202 -0.035181001
-0.016479 0.193719 -0.038635001
-0.016424 0.218466 -0.037261002
-0.016385 0.188557 0.039448
-0.01626 0.223758 0.030981001
-0.016199 0.19665401 0.041676998
-0.016147001 0.245764 0.0044820001
-0.016068 0.24568699 0.007096
-0.016016999 0.19627801 0.041632
-0.015953001 0.19598 -0.041322
-0.015889 0.19675 0.040544
-0.015869999 0.223616 0.017914001
-0.015791999 0.195985 0.041065
-0.015705001 0.229205 -0.03554
-0.015622 0.19690201 0.04098
-0.015573 0.188969 -0.042171001
-0.01555 0.042610001 0.059858002
-0.015514 0.229206 0.035647999
-0.015488 0.196107 0.040681001
-0.015456 0.043143999 0.060548
-0.015421 0.043189 0.060387999
-0.015378 0.043253001 0.060238
-0.015346 0.18909 0.042201001
-0.015281 0.081201002 -0.057399001
-0.015244 0.19580001 0.039969999
-0.015174 0.043283999 0.059114002
-0.015138 0.101017 -0.054862998
-0.015074 0.195503 0.039740998
-0.015053 0.195711 -0.039857998
-0.015029 0.140095 -0.049789999
-0.015001 0.043956 0.059650999
-0.014985 0.19533101 0.039671
-0.01495 0.195912 -0.039081
-0.014904 0.120657 -0.051573999
-0.014873 0.190161 -0.042916998
-0.01484 0.041979998 -0.061693002
-0.014829 0.042631 0.062213998
-0.014794 0.042691 0.062121
-0.014744 0.04276 0.061905999
-0.014701 0.048973002 -0.061565001
-0.014666 0.194619 0.038904
-0.014619 0.19482499 -0.039671
-0.014576 0.049759999 0.058137
-0.014514 0.042491 -0.062242001
-0.014428 0.24531101 -0.0087989997
-0.014349 0.042238999 -0.059734002
-0.014198 0.00096999999 -0.055684999
-0.014179 0.042521 -0.060997002
-0.014165 0.00029500001 -0.052650999
-0.014148 0.00083500001 -0.051121999
-0.014133 0.001686 -0.049743
-0.014103 0.042597 -0.060504001
-0.013973 0.22292501 0.033732999
-0.013854 0.190651 -0.040431
-0.013835 0.043086998 -0.059889
-0.013714 0.222831 -0.032189
-0.01369 0.222012 0.02007
-0.01363 0.043522 -0.059737999
-0.013468 0.22274201 0.019993
-0.013194 0.190974 0.040516
-0.013091 0.042071 0.061928
-0.013001 0.014337 0.066071004
-0.012915 0.19109499 -0.040548
-0.012793 0.229214 0.036711
-0.012768 0.022704 -0.064227
-0.012755 0.195471 -0.039163001
-0.012696 0.229362 -0.037478998
-0.012653 0.197889 0.042183001
-0.012598 0.19777 0.042135999
-0.012544 0.19766399 0.042059999
-0.012509 0.19742601 -0.041556001
-0.012489 0.224573 0.037544001
-0.012452 0.197515 0.041841999
-0.012438 0.206329 0.040291999
-0.012398 0.041113 0.060369998
-0.012365 0.041145999 0.062638998
-0.012342 0.222332 0.036568999
-0.012276 0.040910002 -0.060904998
-0.012225 0.198116 0.040406998
-0.012209 0.048673999 0.060915999
-0.012181 0.191432 0.043242998
-0.012125 0.041133001 -0.060146
-0.012026 0.24464799 -0.013195
-0.012014 0.041606002 -0.061174002
-0.011994 0.041907001 0.059385002
-0.011955 0.229362 -0.037776999
-0.011914 0.190714 -0.042606998
-0.011897 0.042431001 0.059973001
-0.011873 0.198259 -0.040452
-0.011827 0.197704 -0.041379999
-0.011786 0.041822001 -0.059402
-0.011759 0.197662 -0.040982001
-0.01171 0.197596 -0.040796001
-0.011679 0.244588 -0.012478
-0.011652 0.197024 0.039406002
-0.011613 0.19701301 0.04022
-0.011534 0.19684 0.040146999
-0.01148 0.042527001 -0.059158999
-0.011454 0.196658 0.040105999
-0.011355 0.196913 -0.040169999
-0.01129 0.047412999 0.059314001
-0.011275 0.23886 -0.034706999
-0.011235 0.047389999 -0.06188
-0.011173 0.040451001 -0.061992001
-0.01108 0.242062 0.033188
-0.011017 0.23886 -0.034811001
-0.010987 0.221839 0.022468001
-0.010931 0.26555699 0.001378
-0.010872 0.040978 -0.062537998
-0.010663 0.26555699 0.0027950001
-0.010547 0.198184 0.041522998
-0.010244 0.26555699 1e-06
-0.010195 0.26555699 -0.001167
-0.010106 0.26555699 0.001778
-0.0099799996 0.26555699 -0.004681
-0.0098780002 0.220624 0.022412
-0.0097660003 0.014308 -0.066109002
-0.0097589996 0.014212 0.065352999
-0.0097470004 0.26555699 0.00321
-0.0097239995 0.0028520001 -0.061531
-0.009699 0.0011549999 0.058804002
-0.0096730003 0.00022099999 0.05587
-0.0095910002 0.221331 -0.022346999
-0.0094860001 0.26555699 0.0056150001
-0.0093689999 0.040215999 -0.062794
-0.0092770001 0.19948199 0.042633999
-0.0092350002 0.26555699 -0.006019
-0.0091949999 0.199081 -0.042567
-0.009168 0.0041180002 0.048519999
-0.0091530001 0.0047749998 0.046737
-0.009141 0.0056360001 0.045318998
-0.0091289999 0.0069129998 0.043912999
-0.0091169998 0.00022099999 -0.055875
-0.0091089997 0.0063499999 -0.042098999
-0.0091040004 0.00085200003 -0.054322999
-0.0090899998 0.00029500001 0.052699
-0.0090770004 0.00083500001 0.051171001
-0.0090680001 0.198825 -0.042273998
-0.0090610003 0.0033 0.049206998
-0.009052 0.19700199 -0.039618
-0.0090279998 0.229362 0.038582001
-0.0089840004 0.26555699 -0.0049109999
-0.0089060003 0.040064 0.060153998
-0.0088579999 0.22360501 0.039414998
-0.0087780003 0.040656 0.060619999
-0.0087519996 0.040419001 0.059779
-0.0087169996 0.192871 0.043607999
-0.0086479997 0.039535001 -0.062167998
-0.0085760001 0.040856 0.059517998
-0.0085519999 0.192118 0.042955998
-0.0085239997 0.22094201 0.035503998
-0.0085140001 0.041301001 0.060171001
-0.0084650004 0.21771801 -0.040300999
-0.0084530003 0.039613999 -0.060656
-0.0084469998 0.047102001 -0.061227001
-0.0084039997 0.19978 -0.041469
-0.0083910003 0.041345 0.059388999
-0.0083729997 0.242062 -0.033971999
-0.00832 0.23886 0.035551999
-0.0082949996 0.26555699 0.006019
-0.0082729999 0.199028 0.041577999
-0.0082400003 0.19899 0.041384
-0.008223 0.199063 -0.041785002
-0.0081970003 0.19892301 0.041198999
-0.0081829997 0.192238 -0.040392999
-0.0081470003 0.040431 -0.060663
-0.0081019998 0.040534999 -0.060538001
-0.0080530001 0.040653002 -0.060428999
-0.0080159996 0.198735 -0.040885001
-0.0079960003 0.19231901 -0.043001998
-0.007925 0.046064999 0.059579998
-0.0078999996 0.19847301 0.039847001
-0.0078790002 0.18692701 0.044509999
-0.0078309998 0.041145001 -0.059427999
-0.0077960002 0.046828002 -0.05872
-0.0077490001 0.19807801 -0.040534001
-0.0076870001 0.045974001 0.062158
-0.007681 0.197877 0.039755002
-0.0075770002 0.197574 0.039785001
-0.0074740001 0.197612 -0.039795
-0.0074100001 0.193345 0.041134998
-0.007338 0.177377 0.045045
-0.007212 0.21965399 -0.038144998
-0.0069519999 0.22036999 0.038144998
-0.0067670001 0.046448998 0.061354998
-0.006635 0.159159 0.047444001
-0.0063900002 0.24320801 -0.016116001
-0.006362 0.243201 0.016954999
-0.0061590001 0.14059401 -0.050577
-0.0060470002 0.22004101 0.024571
-0.0058539999 0.045318998 0.062284999
-0.0057359999 0.12114 0.053002998
-0.0057160002 0.229362 -0.039209999
-0.0057080002 0.20053101 0.043001998
-0.0056440001 0.121104 -0.052244
-0.0056369998 0.038837999 -0.063079998
-0.0056130001 0.21988299 -0.034534998
-0.0056019998 0.229221 0.038468
-0.0055829999 0.200175 0.042851999
-0.0055590002 0.200183 -0.042854998
-0.0055320002 0.26555699 -0.008626
-0.0055149999 0.039175 -0.062803
-0.0054919999 0.200031 -0.042638
-0.0054779998 0.199974 0.042371001
-0.0054560001 0.101549 -0.054644998
-0.0054230001 0.039243001 0.061623
-0.0053920001 0.039280001 0.061291002
-0.0053360001 0.039399002 0.060981002
-0.0052390001 0.200846 -0.042261001
-0.0051830001 0.038697001 0.063106999
-0.0051580002 0.194153 -0.043912001
-0.0051179999 0.038890999 0.063000999
-0.005072 0.039143998 -0.062495001
-0.0050440002 0.193367 0.040662002
-0.0050189998 0.039117999 0.0625
-0.0049200002 0.20091701 0.041774001
-0.0047579999 0.038242999 -0.061673
-0.0047089998 0.038302001 -0.061140999
-0.0046680002 0.26555699 -0.0099870004
-0.0046120002 0.045715 -0.058936
-0.0045940001 0.200169 0.040452
-0.0045579998 0.200192 -0.041708998
-0.004524 0.200123 -0.041526001
-0.0044920002 0.038970001 -0.061508
-0.0044720001 0.26555699 0.009207
-0.0044470001 0.26555699 -0.0092479996
-0.004433 0.199572 0.040964
-0.0043850001 0.193591 0.043290999
-0.0043779998 0.242698 -0.017624
-0.0043640002 0.199955 -0.040297002
-0.0043219998 0.200342 0.042603999
-0.0042900001 0.039443001 -0.059787001
-0.0042599998 0.039568 -0.060568001
-0.0042440002 0.21890301 -0.040013
-0.0042119999 0.039712999 -0.060495999
-0.0041760001 0.19938099 -0.040100001
-0.0041339998 0.039941002 -0.059657
-0.004034 0.00022 0.055909
-0.0040239999 0.00085100002 -0.054358002
-0.0040139998 0.00029500001 0.052735001
-0.0040040002 0.00083500001 -0.051206999
-0.0039929999 0.198773 -0.040098999
-0.0039189998 0.215875 -0.041230999
-0.0036909999 0.26555699 0.010388
-0.003399 0.26555699 0.0096570002
-0.0030429999 0.20148 -0.042213
-0.0030390001 0.21894599 -0.024360999
-0.0028649999 0.21888299 -0.036400001
-0.0028029999 0.19410001 0.040824998
-0.002779 0.206828 -0.041753002
-0.002723 0.194124 -0.040830001
-0.002687 0.205578 -0.042697001
-0.002472 0.037590999 0.062535003
-0.002416 0.201619 -0.041937001
-0.002384 0.201554 0.041632
-0.002288 0.20128299 -0.041072998
-0.0022420001 0.20091601 0.042250998
-0.002227 0.200895 -0.042055
-0.0022229999 0.200918 0.042610999
-0.0022209999 0.201675 0.043253001
-0.002207 0.200856 0.041862998
-0.002199 0.044163 -0.062504999
-0.0021810001 0.201525 -0.043251999
-0.002175 0.200772 -0.041657999
-0.0021559999 0.200865 0.040622
-0.0021490001 0.201409 0.043233
-0.002136 0.200802 0.040564999
-0.002105 0.20056701 -0.041363999
-0.002084 0.20118999 0.043102998
-0.0020659999 0.20113499 -0.043049999
-0.0020600001 0.200426 -0.041226
-0.002048 0.200385 -0.041198
-0.0020290001 0.200324 0.041156001
-0.002016 0.20100001 -0.042778999
-0.002013 0.200266 -0.041129999
-0.0020029999 0.20097999 -0.042626001
-0.0019690001 0.20011801 0.041065
-0.0019189999 0.19994099 -0.041005999
-0.00191 0.199908 -0.041003
-0.001882 0.19991 0.040231001
-0.00184 0.199652 -0.040982999
-0.001813 0.038203999 0.061815001
-0.001803 0.038213 0.061647002
-0.001783 0.044064 -0.059964001
-0.001769 0.044831999 -0.061664999
-0.001744 0.199431 0.040242001
-0.00171 0.038229998 0.060191002
-0.001688 0.03816 -0.062792003
-0.0016589999 0.21763299 -0.038826998
-0.001636 0.26555699 -0.01013
-0.0015970001 0.037981 0.063106999
-0.001573 0.22921801 0.038842998
-0.001518 0.19526701 -0.044135999
-0.001452 0.229362 -0.039556999
-0.0013989999 0.21834899 -0.038826998
-0.001362 0.21752501 0.02461
-0.00124 0.194554 -0.040910002
-0.00099099998 0.037227999 -0.062600002
-0.00091499998 0.241798 -0.017406
-0.00084200001 0.037331998 -0.061078999
-0.00075599999 0.037590001 -0.060616001
-0.00070099998 0.18764 0.044397
-0.000695 0.044551998 0.061717
-0.00067799998 0.195498 0.041595999
-0.00065200002 0.037951998 -0.061535001
-0.00063199998 0.038003001 -0.061376002
-0.00060000003 0.037893001 0.062728003
-0.00057700003 0.037124 0.061875999
-0.00054699997 0.21803901 -0.024605
-0.00047999999 0.19476201 -0.043499999
-0.00046800001 0.18529101 0.044713002
-0.00039199999 0.038832001 -0.060637001
-0.00034599999 0.202126 -0.041825
-0.00027300001 0.26555699 0.010231
-0.000222 0.26555699 -0.011021
-0.000204 0.217914 0.024637001
-0.00015599999 0.201115 0.041466001
-2.8e-05 0.20062201 -0.041122001
0 0.21784 -0.036513001
-0 0.23886 0.036405001
1e-06 0.17926601 -0.046255998
7.2000003e-05 0.17846601 0.046360001
0.000117 0.20003 0.041057002
0.000183 0.26555699 0.010996
0.00045200001 0.26555699 0.010252
0.00062499999 0.0071120001 -0.042163
0.00065900001 0.0062429998 -0.043432999
0.000665 0.006201 0.043660998
0.00068400003 0.26555699 0.010225
0.000696 0.00587 0.044824999
0.00070999999 0.0056139999 0.045373
0.00072800001 0.0052840002 0.046050001
0.00073999999 0.0063080001 0.045696001
0.00075399998 0.004586 0.047038998
0.00077699998 0.0037440001 -0.047901001
0.00078399997 0.0053719999 0.047258001
0.00079800002 0.00281 -0.048687998
0.00081400003 0.0024250001 -0.050151002
0.00082000002 0.001709 0.049860001
0.00083099998 0.003299 -0.04927
0.00084300002 0.002447 0.050124999
0.00085299998 0.001548 -0.051575001
0.00086299999 0.001757 0.051116999
0.00087300001 0.001546 0.051573001
0.000895 0.000306 -0.052765001
0.00090400001 0.00096400001 -0.053275999
0.00093600003 9.5000003e-05 -0.054193001
0.00094100001 9.9999997e-05 0.054329999
0.00094200001 0.00085000001 -0.054478001
0.00098000001 0.00093699998 -0.055619001
0.00099500001 0.00029500001 0.056306999
0.001029 0.21791799 0.041276
0.001059 0.001855 -0.058545001
0.00106 0.001151 0.058867
0.001095 0.001891 0.060254
0.001125 0.0034409999 0.061083999
0.001127 0.0027930001 0.061533999
0.001144 0.202335 0.043350998
0.001164 0.00281 0.048666
0.001179 0.0055979998 -0.063157
0.001183 0.0051620002 0.063781001
0.001198 0.0059810001 -0.064364001
0.001208 0.0072829998 -0.064225003
0.001217 0.241289 -0.018154999
0.00122 0.0082379999 -0.064636
0.001222 0.007952 0.065343998
0.001227 0.0084210001 0.065545
0.001234 0.202555 0.042576
0.001242 0.010996 -0.066151999
0.001243 0.011068 0.066182002
0.001243 0.011143 -0.065399997
0.0012450001 0.014242 -0.066192999
0.001255 0.201855 0.043017
0.001306 0.229211 0.038853999
0.001316 0.164408 -0.048191998
0.0014 0.036642998 0.062706999
0.0015 0.043187 -0.062687002
0.001501 0.00085200003 0.054317001
0.001587 0.00096799998 -0.055759002
0.001599 0.16011 0.048726
0.001677 0.02049 0.064669997
0.0017040001 0.020477001 0.065436997
0.001773 0.036633998 0.061443001
0.001814 0.21718 -0.024522001
0.001855 0.022778001 -0.064392999
0.001901 0.1567 0.048395
0.0019189999 0.26555699 0.010081
0.0019700001 0.037349999 0.060350001
0.0020369999 0.036825001 -0.063450001
0.0020610001 0.025346 -0.064847
0.002104 0.037105002 -0.063265003
0.002146 0.037250001 -0.062958002
0.0022189999 0.028143 0.063743003
0.0023010001 0.150575 -0.049153998
0.002417 0.26555699 -0.0099529997
0.0024379999 0.036431 -0.061797999
0.002447 0.036465999 -0.061636999
0.0024649999 0.036532 0.061328001
0.002504 0.036703002 -0.060981002
0.002539 0.036853999 -0.060731001
0.002568 0.036986001 0.060578998
0.0025889999 0.037168 -0.061967
0.002593 0.037182 0.061833002
0.0026080001 0.037237 -0.061579999
0.0026189999 0.037283 0.061462
0.002635 0.037353002 -0.061347999
0.002654 0.037438001 -0.061207
0.002663 0.037478998 0.061159
0.0026740001 0.035117 0.062905997
0.0027000001 0.037647001 -0.061007001
0.002716 0.037673999 0.060123999
0.0027330001 0.037801001 0.060894001
0.002752 0.036559999 -0.063501
0.0027590001 0.26555699 -0.0098839998
0.0027679999 0.037921999 -0.060033999
0.002778 0.22920699 0.038750999
0.00278 0.22920699 -0.038770001
0.0027940001 0.036765002 0.063438997
0.0028019999 0.038173001 -0.059982002
0.00281 0.26555699 -0.010659
0.002816 0.036867999 0.063368
0.0028240001 0.036908001 0.063335001
0.0028309999 0.038265999 -0.060738001
0.002843 0.036991999 0.063236997
0.0028540001 0.141056 -0.051095001
0.0028560001 0.14102 0.051100001
0.0028649999 0.21679699 0.036400001
0.0028669999 0.037096001 0.062983997
0.002871 0.037110001 -0.062870003
0.0028840001 0.140866 -0.050349999
0.0030340001 0.21592499 0.024387
0.0030700001 0.042830002 -0.060194001
0.0030809999 0.042826999 0.062752999
0.003115 0.20288999 -0.041846
0.003144 0.20271701 0.041384999
0.0031979999 0.216676 0.024402
0.003216 0.20219401 -0.042335998
0.003238 0.202049 0.041742001
0.0032879999 0.21664301 -0.024343999
0.0033460001 0.201645 -0.040429998
0.003363 0.20589601 0.042955998
0.003423 0.201084 -0.041074
0.0034650001 0.12896401 -0.051794
0.0035349999 0.20069 -0.040321
0.0036899999 0.121078 -0.053500999
0.003699 0.059829999 0.060740001
0.003724 0.057962 -0.06019
0.0037690001 0.061753999 -0.060511999
0.0038069999 0.062334001 0.059673999
0.0038459999 0.0061690002 0.043593999
0.003858 0.195925 0.043515
0.0038600001 0.20308299 0.042555999
0.0038920001 0.26555699 -0.009478
0.0039149998 0.042652 0.060183998
0.0039400002 0.115019 -0.053461
0.0039960002 0.006327 0.045481
0.0040099998 0.19675501 -0.041615002
0.0040310002 0.006327 -0.045478001
0.004067 0.043398 0.061882
0.004102 0.072375998 -0.058490001
0.0041180002 0.0047749998 -0.046571001
0.004127 0.224921 0.039402001
0.0041629998 0.101918 0.055011999
0.004183 0.100839 0.055139001
0.0041970001 0.080903001 -0.057487
0.0042190002 0.091018997 0.056295998
0.0042400002 0.20091701 -0.041055001
0.004245 0.200817 -0.040300999
0.0042619999 0.086709 -0.056804001
0.0044450001 0.25285199 0.013869
0.00459 0.229362 0.039358001
0.004646 0.202631 0.043122001
0.0046649999 0.202489 0.042851999
0.0050340001 0.0041180002 0.048271999
0.0050710002 0.00281 0.048384
0.0050849998 0.19598199 0.041708998
0.0051000002 0.036687002 0.061948001
0.0051130001 0.26555699 0.00887
0.0051480001 0.036695 0.060346998
0.0051660002 0.203132 -0.043313999
0.0051759998 0.20298199 0.043279
0.0052120001 0.202849 -0.043207001
0.005229 0.20273399 -0.043106001
0.0052450001 0.19492801 -0.041076001
0.0052760001 0.00153 -0.051236998
0.0053090001 0.037689999 0.059928998
0.0053900001 0.001042 -0.052597001
0.0054259999 0.036315002 0.063354999
0.0054609999 0.036623999 0.062808998
0.0055459999 9.0000001e-05 -0.054005999
0.0056130001 0.21579701 0.034534998
0.0056400001 0.20340399 -0.042512
0.005682 0.00021899999 0.055606
0.0057120002 0.21576101 -0.036063001
0.0057950001 0.00021899999 0.055594001
0.0058070002 0.035827 -0.061554998
0.0058289999 0.21920601 -0.040213998
0.0058650002 0.20275301 -0.042959001
0.0059219999 0.26555699 0.0092660002
0.0059369998 0.036628 -0.061471
0.0059810001 0.037211999 -0.059982002
0.006021 0.035964999 -0.063417003
0.0060410001 0.036091 -0.063387997
0.0060720001 0.036313999 -0.063254997
0.006091 0.036504999 -0.062918
0.0062310002 0.218096 -0.041136
0.0063450001 0.20275 0.042249002
0.0064050001 0.035696998 -0.062657997
0.0064790002 0.194042 -0.043770999
0.0065339999 0.22761101 -0.019861
0.0065939999 0.0078490004 0.064948998
0.0065990002 0.20333 -0.041289002
0.0066049998 0.20356899 0.042238001
0.0066240001 0.203049 0.040885001
0.0066669998 0.20268001 0.04056
0.0066979998 0.202664 -0.041646
0.0067139999 0.20248801 0.041393001
0.0067759999 0.201986 -0.041049
0.006819 0.20169 -0.040978
0.0068680001 0.20128401 -0.040224999
0.0069340002 0.042095002 -0.060107999
0.0069610002 0.26555699 0.0085150003
0.0071040001 0.26555699 0.0074049998
0.0073119998 0.214368 -0.023282999
0.0075030001 0.239677 0.015555
0.007679 0.26555699 0.0079089999
0.0076930001 0.035521999 0.062591001
0.007803 0.26555699 -0.007764
0.0078349998 0.19691201 -0.040798999
0.0078570005 0.19553301 0.040984999
0.0078929998 0.214967 -0.023115
0.0079359999 0.197098 -0.040764
0.0080009997 0.195778 -0.040920001
0.0080169998 0.198052 0.041407
0.0080610001 0.19665501 0.040766001
0.008072 0.19684701 0.040739
0.0080810003 0.19718599 -0.041506998
0.0080930004 0.19560499 0.041719999
0.00813 0.19664501 0.040718999
0.0081430003 0.19687299 -0.040688001
0.0081639998 0.197956 0.040619001
0.0082010003 0.196824 0.040635001
0.008219 0.19800299 0.041390002
0.0082259998 0.19419 0.041149002
0.0082400003 0.196623 0.040594
0.0082529997 0.19684701 -0.040564001
0.008262 0.042659 0.059200998
0.0082790004 0.195546 0.040731002
0.0083039999 0.19791301 0.040541001
0.00832 0.242062 0.035551999
0.0083400002 0.199081 0.041253999
0.0083619999 0.197891 0.040486
0.008382 0.194473 0.040996
0.0084100002 0.19787 0.040421002
0.0084269997 0.199039 0.040479999
0.0084389998 0.199277 0.040454
0.0084480001 0.194823 -0.041760001
0.0084659997 0.192614 -0.041361999
0.0084800003 0.19451299 -0.040854
0.008506 0.194608 0.041786
0.0085150003 0.19924299 0.040449001
0.008525 0.194544 -0.041793998
0.008556 0.194259 0.040881999
0.0085850004 0.19346701 -0.041992001
0.0085929995 0.26555699 -0.0056090001
0.0086059999 0.203659 0.043147001
0.0086230002 0.203509 0.043111999
0.0086390004 0.20309199 0.042516999
0.0086460002 0.20311201 0.04267
0.0086580003 0.199296 0.041195001
0.0086679999 0.224966 0.038856
0.0086890003 0.198909 0.040332001
0.008715 0.194585 -0.041689999
0.0087280003 0.19932599 -0.040374
0.0087569999 0.035654999 0.060740001
0.0087700002 0.196794 -0.041143999
0.0087860003 0.036207002 0.061345
0.0087900003 0.036144 0.061565999
0.0088 0.036121 0.061795
0.0088069998 0.193307 -0.041979998
0.0088149998 0.19804899 -0.041115999
0.0088400003 0.160963 0.048721999
0.0088470001 0.193505 -0.040961999
0.0088670002 0.194676 0.041547999
0.008893 0.19358701 -0.041907001
0.008897 0.19681901 0.040971
0.0089140004 0.19701999 -0.040945001
0.0089530004 0.0063499999 0.041443001
0.0089729996 0.199371 -0.040185999
0.0089790002 0.195425 0.041129999
0.0089919996 0.200288 0.040288001
0.0090009999 0.199407 0.040180001
0.0090229996 0.229362 0.038552001
0.0090490002 0.042567 -0.059154
0.0090739997 0.19240201 -0.041363001
0.0090880003 0.035519999 0.063274004
0.009114 0.035766002 0.063189998
0.0091300001 0.036024999 0.062899999
0.0091500003 0.194647 -0.041205
0.0091610001 0.200387 -0.040259
0.0091939997 0.193427 0.041816
0.0091979997 0.19302601 0.041958001
0.0092209997 0.0069129998 -0.043237999
0.0092369998 0.20374 -0.043102998
0.0092620002 0.203172 -0.042474002
0.0092700003 0.203192 -0.042626001
0.0092810001 0.192967 -0.041954
0.0093040001 0.19894999 0.040826
0.0093120001 0.0036279999 -0.047270998
0.0093409996 0.20002399 0.040073
0.0093689999 0.19908901 -0.040801998
0.0093830004 0.19880401 -0.040677998
0.0094090002 0.206211 0.042750001
0.0094149997 0.21360201 -0.037466999
0.0094299996 0.191921 -0.041395001
0.0094799995 0.199011 -0.040642001
0.009505 0.0047749998 -0.046048999
0.0095370002 0.229362 0.038458999
0.0095570004 0.25204599 -0.0097319996
0.0095790001 0.192269 0.041074
0.0095960004 0.00538 -0.046505
0.009606 0.193553 0.041283999
0.0096349996 0.192191 -0.041081
0.0096509997 0.192701 -0.041866001
0.0096969996 0.20120201 0.040121999
0.0097089997 0.037046999 -0.059728999
0.0097249998 0.013942 -0.064768001
0.0097350003 0.19286799 -0.041715
0.0097610001 0.20114399 0.040119
0.0097829998 0.037128001 -0.060484
0.0097920001 0.035998002 -0.062604003
0.0097979996 0.035983998 -0.062734999
0.0098179998 0.201333 -0.040096
0.0098580001 0.201249 0.040098
0.009881 0.203997 -0.042257
0.0099210003 0.214229 0.022260999
0.0099499999 0.20121799 -0.040856998
0.0099640004 0.20396701 0.043028001
0.0099780001 0.19152699 -0.041370001
0.0099980002 0.20115399 -0.040043999
0.01001 0.226549 0.019059001
0.010047 0.201098 -0.039999001
0.010075 0.203513 0.040665999
0.010091 0.20314001 -0.040341999
0.010101 0.20097899 0.039880998
0.010122 0.2027 -0.040118001
0.010125 0.204042 0.042018998
0.010149 0.20111801 0.040803999
0.010167 0.20222101 -0.040006001
0.01018 0.203132 0.041425999
0.010189 0.202721 0.040971
0.010198 0.201078 -0.039859001
0.010211 0.20328499 -0.042018998
0.010226 0.191497 0.041127998
0.010237 0.20214701 0.040761001
0.010272 0.20184 -0.040764999
0.010301 0.191421 -0.041131999
0.01034 0.003299 0.048436999
0.010385 0.21405999 -0.02287
0.010428 0.042369999 -0.05909
0.010446 0.20112699 -0.040690001
0.010499 0.020510999 -0.064787999
0.010548 0.14133599 0.050301999
0.010604 0.20059399 0.040305
0.01067 0.20085201 -0.040435001
0.010711 0.191939 0.041538998
0.010767 0.001042 -0.052053001
0.010773 0.19189399 0.041517001
0.010832 0.21934099 -0.039632998
0.010839 0.191928 0.041317001
0.010908 0.20214801 -0.039891001
0.010941 0.238832 -0.013143
0.010956 0.19083101 0.041200001
0.010996 0.20201699 -0.039843999
0.011006 0.202121 -0.040642999
0.011019 0.229168 -0.037278
0.011032 0.20307399 0.040100999
0.011038 0.20267101 0.039937999
0.011065 0.202243 -0.039863002
0.01108 0.242062 0.033188
0.011097 0.213801 -0.021591
0.011123 0.201951 -0.040608
0.011165 0.201483 0.040445
0.011206 0.20411099 -0.041425001
0.011215 0.229362 0.037928
0.011252 0.20133799 0.040295999
0.011267 0.202962 -0.040901002
0.011283 0.213733 -0.034724999
0.01129 0.20314801 0.041095
0.011319 0.201213 0.040119998
0.01134 0.201608 -0.040406998
0.011422 0.20341299 -0.041836001
0.011424 0.001822 -0.057604
0.011464 0.188407 0.044380002
0.01149 0.189142 0.045049001
0.011547 0.21363699 0.021283001
0.011651 0.035813998 0.061608002
0.011652 0.19126301 0.044751
0.011726 0.202525 0.039740998
0.011755 0.035039999 0.062341999
0.011782 0.20241199 0.039657
0.011809 0.202373 0.040484998
0.011828 0.035238001 -0.063080996
0.011893 0.121472 -0.053376
0.011909 0.041455999 0.062405001
0.011932 0.229362 -0.037702002
0.011951 0.042215999 -0.061549999
0.011964 0.0054970002 0.062174998
0.011991 0.202379 0.039484002
0.012021 0.060860999 -0.059496999
0.012036 0.202436 -0.040437002
0.012065 0.203895 0.042819999
0.012089 0.20245101 0.040424999
0.012126 0.202695 -0.039666999
0.012164 0.238536 -0.011914
0.012194 0.111536 0.053750001
0.012218 0.007772 0.064345002
0.012241 0.013892 -0.064516999
0.012302 0.201802 -0.039877001
0.012318 0.010812 0.065192997
0.012346 0.201823 0.039866
0.012446 0.070234001 0.059193999
0.012454 0.035259001 0.060493998
0.012481 0.036405001 0.059609
0.012491 0.036412001 0.060426999
0.012505 0.035743002 0.061322
0.012533 0.081139997 -0.057197999
0.012568 0.101077 0.055702999
0.012625 0.20428699 -0.042009
0.012659 0.20352601 0.042160001
0.012667 0.204256 -0.042784002
0.012676 0.203546 0.042312998
0.012681 0.090804003 -0.056867
0.012687 0.203603 0.042456999
0.012691 0.203693 0.042583998
0.012694 0.203693 0.042583
0.012706 0.20353 0.042155001
0.012718 0.20354199 0.042273998
0.012725 0.204106 -0.042780999
0.012733 0.20401999 0.042768002
0.012738 0.203906 0.042729001
0.012805 0.035131998 0.063015997
0.012818 0.035379998 0.062932998
0.012842 0.203311 -0.039684001
0.012917 0.21354701 -0.040412001
0.012956 0.190492 0.036409002
0.012988 0.20302901 0.03951
0.013031 0.20280699 0.039283998
0.013124 0.224999 -0.037866998
0.013136 0.23830201 0.010733
0.013156 0.180121 0.046172
0.013224 0.20308 -0.039471
0.013258 0.202172 0.039641999
0.013347 0.035188001 -0.060421001
0.013377 0.20276199 -0.040130999
0.013408 0.20300201 -0.040245
0.013428 0.203171 0.040369
0.01346 0.036139999 -0.060470998
0.013472 0.036548998 -0.060260002
0.013491 0.203436 -0.040690001
0.013509 0.035642002 -0.061471
0.013525 0.035521001 -0.062697999
0.01358 0.20358001 -0.041074999
0.01363 0.203601 0.041278999
0.01371 0.003299 -0.047981001
0.013714 0.21284799 0.032189
0.013896 0.223994 0.038741998
0.013973 0.212754 -0.033732999
0.014012 0.188573 0.044190001
0.014138 0.0063499999 -0.040757
0.014177 0.190357 0.036658999
0.014215 0.202712 0.039833002
0.014259 0.203226 0.03923
0.014326 0.229362 0.036943998
0.01441 0.202967 0.039960001
0.014425 0.202969 -0.039957002
0.014433 0.0069129998 -0.042546999
0.01446 0.20334999 0.039264999
0.014476 0.204419 0.041081
0.014497 0.20334899 -0.039255999
0.014512 0.041246999 0.059636999
0.014571 0.036639001 -0.059346002
0.014591 0.170352 0.046599001
0.014616 0.203162 -0.040027998
0.014622 0.20433401 0.040417999
0.014642 0.202987 -0.039910998
0.014666 0.006327 0.044259999
0.014678 0.203537 -0.040467001
0.014707 0.203612 -0.040645
0.014739 0.237975 0.0097099999
0.014775 0.203676 0.041023001
0.014835 0.041209001 0.062183999
0.014898 0.00538 0.045802999
0.014908 0.20316701 -0.038931999
0.014916 0.20323101 -0.039027002
0.014919 0.20417599 0.042502001
0.014922 0.00538 -0.045798998
0.014931 0.20339701 -0.039193999
0.014936 0.212404 -0.035456002
0.014942 0.041965999 -0.061324
0.014953 0.20375299 0.039439
0.014981 0.204046 -0.039756
0.015 0.20245799 -0.039198
0.015004 0.20245799 -0.039193999
0.015004 0.202457 0.039191999
0.015006 0.202456 0.039188001
0.015022 0.204239 0.040068999
0.015029 0.202594 -0.039450999
0.015039 0.202677 0.039562002
0.01505 0.202897 -0.039765999
0.015052 0.203012 0.039841
0.015057 0.20369101 -0.040973999
0.015059 0.20435099 0.040353
0.015066 0.20328 -0.040027
0.015084 0.20440499 -0.040527999
0.015094 0.0041180002 0.047106002
0.015113 0.19316 0.031122001
0.015133 0.203629 -0.040578
0.015147 0.212327 0.0186
0.015158 0.20368201 -0.040762
0.015187 0.20369899 0.040952001
0.015287 0.229138 0.035764001
0.015435 0.187471 -0.041336998
0.015486 0.00281 -0.047150999
0.015526 0.191466 -0.031291001
0.015562 0.20378999 -0.039351001
0.015659999 0.203071 0.039763
0.015697001 0.203475 -0.040112
0.015719 0.002294 0.048762001
0.015744001 0.219465 0.038609002
0.015803 0.203729 0.040858001
0.015867 0.00084400002 0.049651001
0.015907001 0.204492 0.041583002
0.015915001 0.19068301 -0.031362999
0.016000999 0.18805 -0.044893
0.016055999 0.204473 -0.042344
0.016081 0.034738999 -0.061958
0.016111 0.001042 -0.051329002
0.016138 0.035521999 0.059609
0.016177 0.036182001 0.060091
0.016201001 0.242062 -0.032721002
0.016241999 0.035507999 0.060986001
0.01626 0.242062 0.030981001
0.016309001 0.20376299 -0.041806001
0.016337 9.0000001e-05 0.052728001
0.016361 0.20437001 -0.042312998
0.016395999 0.00021899999 0.054340001
0.016462 0.218446 -0.039487001
0.016507 0.035461999 0.062167998
0.01653 0.23886 0.032439001
0.016546 0.00096799998 -0.054177999
0.016579 0.00021899999 -0.054315001
0.016674999 0.211771 -0.017092999
0.016822999 0.001113 -0.057161
0.017019 0.189337 -0.031465001
0.017078999 0.035216998 -0.059762001
0.017168 0.003339 0.059342999
0.017186999 0.036148001 -0.059983
0.017211 0.03469 -0.061115
0.017233999 0.035438001 -0.062089
0.017266 0.035239998 -0.062426999
0.017274 0.035011001 -0.062558003
0.017359 0.211522 0.016257999
0.017554 0.0049769999 0.061988998
0.017701 0.0079849996 -0.062862001
0.017790999 0.0076839998 0.063556001
0.017824 0.010817 -0.063672997
0.017872 0.0041180002 -0.046640001
0.017937999 0.2105 -0.01523
0.017986 0.003299 -0.047318
0.018173 0.211225 -0.015207
0.018226 0.141775 -0.049927998
0.018278001 0.203807 0.041367002
0.018304 0.013822 0.064466
0.01835 0.20399 0.041804999
0.018367 0.187227 0.03112
0.018381 0.224084 -0.037280001
0.018422 0.20337801 -0.03844
0.018446 0.203529 -0.038594998
0.018576 0.041832998 0.060963001
0.018658999 0.23886 0.031385001
0.018727001 0.229109 0.034070998
0.018864 0.18779901 0.031214001
0.018933 0.212723 0.040231001
0.019103 0.229362 -0.034678999
0.019137001 0.020578001 -0.062959
0.019244 0.0063499999 0.039898999
0.019321 0.131965 -0.051789001
0.019397 0.229103 -0.033723
0.019540001 0.179902 0.044939
0.019586001 0.20990001 -0.032614
0.019659 0.210685 0.012983
0.019678 0.18054301 0.045607999
0.019722 0.203582 0.038380999
0.019787 0.22763699 -0.034281
0.019815 0.049878001 -0.060777001
0.019847 0.21061601 -0.032614
0.019858999 0.188318 0.026272999
0.019874001 0.20457999 -0.040925
0.019903 0.20383 -0.041200001
0.019912999 0.041834999 -0.058235001
0.019924 0.203866 -0.041317001
0.019962 0.20400199 -0.041519001
0.019983999 0.041067999 -0.059076
0.019996 0.20457 -0.041692998
0.020047 0.027907999 -0.062146001
0.020071 0.20453601 0.039671
0.020155 0.204579 0.040081002
0.020179 0.035431001 -0.061590999
0.020212 0.229362 0.034001999
0.020245001 0.061021 -0.058809001
0.020254999 0.035296001 0.061967
0.02029 0.04183 0.058192998
0.020318 0.20963401 0.01129
0.020334 0.0036279999 -0.045634001
0.020395 0.229094 0.033131
0.02043 0.0041180002 0.046209998
0.020455001 0.202648 -0.038213
0.020488 0.20340499 -0.039057001
0.020519 0.041072998 0.059009999
0.020540001 0.229093 0.033034999
0.020578999 0.20370699 -0.039471999
0.020622 0.03466 -0.061423998
0.020645 0.00281 -0.046275001
0.020655001 0.041072 0.058993999
0.020726001 0.101756 0.054368
0.020752 0.003299 0.046847999
0.020788001 0.034673002 0.061395999
0.020833001 0.189891 -0.020543
0.020861 0.081377 0.056589
0.020887 0.091576003 0.055477999
0.020908 0.0348 -0.059939001
0.020945 0.002294 -0.047874
0.020953 0.035757001 -0.059808999
0.020974001 0.192485 -0.020304
0.020997999 0.035303999 -0.061868001
0.021009 0.035512999 -0.060201999
0.021019001 0.21019 -0.027970999
0.021039 0.034851 -0.062121999
0.021091999 0.210163 -0.01016
0.021111 0.00084400002 0.048760001
0.021241 0.19331799 -0.020231999
0.021304 0.206833 -0.040975999
0.021384001 0.20264301 0.038013998
0.021402 0.23886 0.029455001
0.021430001 0.20274 0.038226001
0.021462001 0.21002799 0.029539
0.021524001 0.20316 0.038658001
0.021602999 0.192386 0.020723
0.021638 0.00021899999 0.053454999
0.021656999 0.18753 0.020788001
0.021687999 0.203794 0.040723
0.021782 0.203979 0.041164
0.021831 0.20455199 0.041333001
0.021876 0.209878 -0.01016
0.021907 0.188587 -0.021011
0.021954 0.00096799998 -0.053259
0.02197 0.20453 -0.040493999
0.022081999 0.18319 -0.041480001
0.022120999 0.001793 -0.055918999
0.022151001 0.001097 0.056228999
0.022185 0.20452601 -0.041244
0.022244001 0.003299 -0.046548001
0.022278 0.229077 -0.031879999
0.022299999 0.186773 0.020570001
0.022577999 0.003302 0.058385
0.022637 0.0027030001 0.058851998
0.022700001 0.187298 0.02108
0.022786999 0.208735 0.0023419999
0.022891 0.229362 -0.032343
0.022949001 0.20948701 0.0032619999
0.023023 0.20946001 0.0023399999
0.02311 0.19510099 0.020474
0.023142001 0.202604 -0.037611999
0.023202 0.242062 -0.026188999
0.023231 0.242062 0.028169001
0.023287 0.203008 -0.038185999
0.023353999 0.22238199 -0.034947999
0.023381 0.010695 0.062717997
0.023459001 0.21393999 0.037864
0.023482 0.186517 0.020786
0.023502 0.20374399 -0.040461
0.023530001 0.035879999 0.058467999
0.023575 0.225041 0.033549
0.023603 0.204015 -0.040858001
0.023641 0.20437101 -0.040957998
0.023685001 0.19563299 0.020415001
0.023739999 0.034890998 0.059542999
0.023773 0.18173 -0.044932
0.023817999 0.20370001 0.040247999
0.023923 0.18963601 -0.015317
0.023941999 0.18881901 -0.015382
0.023987001 0.196651 0.019969
0.024026001 0.035202 0.061611
0.024049999 0.034947 0.061687998
0.024111999 0.180397 0.041416999
0.024257001 0.187299 0.015511
0.02428 0.20326599 -0.037085
0.024320999 0.19608501 0.020357
0.024348 0.0063499999 -0.038857002
0.024397001 0.203372 0.037246
0.024417 0.181174 0.041476998
0.024505001 0.034805 0.060169
0.024557 0.035333999 -0.058770001
0.024574 0.189677 -0.015712
0.024594 0.18894701 0.015757
0.024630999 0.036277 -0.058988001
0.024668001 0.20380101 0.037551001
0.024697 0.035902999 -0.059264999
0.024706 0.0061690002 -0.040465999
0.024735 0.035762001 -0.059450999
0.024746001 0.197072 0.019939
0.024768 0.00281 -0.045442998
0.024801999 0.034809001 -0.060130998
0.024816999 0.15222199 -0.048861999
0.024902999 0.203464 -0.037227999
0.024954 0.185885 0.015643001
0.024986999 0.20378301 -0.037471998
0.025025001 0.0056360001 0.042004999
0.025076 0.002294 0.047042001
0.025095001 0.20364401 0.039963
0.025155 0.20369001 0.040203001
0.025185 0.204237 -0.038121998
0.025234001 0.208656 -0.024236999
0.025269 0.203529 0.038398001
0.025291 0.204353 -0.038500998
0.025328999 0.0069129998 0.040495001
0.025341 0.0069129998 -0.040491998
0.025401 0.203623 0.038881999
0.025449 0.20338599 -0.037055999
0.025496 0.18437301 0.020848
0.025542 0.186279 -0.015885999
0.025564 0.22904301 -0.029310999
0.025622001 0.00030099999 0.049396999
0.025723999 0.006327 -0.042178001
0.025783001 0.23886 -0.025787
0.025818 0.208443 -0.025818
0.025866 0.14221101 -0.049226001
0.025959 9.0000001e-05 -0.050958
0.026048001 0.036857001 0.058618002
0.026069 0.229362 -0.029777
0.026148001 0.142382 -0.049947001
0.026231 0.00096799998 0.052397002
0.026298 0.00021899999 -0.052526999
0.026351999 0.036823999 0.057797998
0.026407 0.196906 0.020204
0.026463 0.182384 0.020776
0.026551999 0.013526 -0.062219001
0.026589001 0.17918301 -0.0449
0.026705001 0.179103 0.044902001
0.02679 0.204282 0.039390001
0.026849 0.00096799998 0.052253
0.026931001 0.042185999 0.059811
0.026974 0.229028 -0.028028
0.027053 0.18775199 -0.010221
0.027101999 0.242062 -0.022128001
0.027148001 0.203537 -0.039709002
0.027192 0.189281 -0.01013
0.027241001 0.203777 -0.039988998
0.027264999 0.20389 -0.040043999
0.027303001 0.204267 -0.040063001
0.027411999 0.001777 -0.054809
0.02744 0.001079 -0.055117
0.027474999 0.036534999 0.057684001
0.027488999 0.042231999 0.057140999
0.027519999 0.203272 0.036536999
0.027598999 0.202288 -0.036417
0.027662 0.035211999 -0.061087001
0.027683999 0.190789 0.010051
0.027706999 0.18783 -0.010606
0.027736001 0.203256 0.036479998
0.027760999 0.178113 -0.044884998
0.027765 0.187152 0.010634
0.027778 0.035473999 0.060989998
0.027826 0.189201 0.010545
0.027853999 0.122347 -0.051369999
0.027883001 0.041508 0.057918001
0.027899999 0.186491 -0.010658
0.027946001 0.181034 -0.020801
0.027960001 0.035059001 0.05962
0.027964 0.177921 0.041444998
0.028000001 0.176816 0.041379999
0.028044 0.036973 -0.057512999
0.028054999 0.035835002 -0.060368001
0.02809 0.204147 -0.039039001
0.028116999 0.17121901 0.045092002
0.028159 0.042304002 0.059610002
0.028169001 0.122255 0.052117001
0.028208001 0.035388999 -0.060968
0.028232999 0.202995 0.037165001
0.028294001 0.203981 -0.037301
0.028314 0.036816001 -0.058279
0.028352 0.036595002 -0.058359001
0.028374 0.035417002 -0.05844
0.028383 0.185259 -0.010693
0.028401 0.203142 -0.037323002
0.028448001 0.21411601 -0.03596
0.028462 0.181585 0.020889999
0.028480001 0.004834 0.059852
0.028516 0.112248 0.052443001
0.028534999 0.203364 0.039214998
0.028554 0.18519799 0.01038
0.028596999 0.035124 -0.059509002
0.028631 0.035893999 -0.059489001
0.028672 0.20364 0.039613001
0.028701 0.035918001 0.059469
0.028720001 0.203879 0.039696999
0.028795 0.207359 -0.019876
0.028841 0.112021 0.053202
0.028895 0.071383998 0.056731999
0.028935 0.013456 0.061740998
0.028953001 0.102074 0.053514998
0.028977999 0.191727 -0.010417
0.029056 0.22900601 0.025895
0.029097 0.229362 -0.026792999
0.029162001 0.091853 0.054586999
0.02925 0.00281 0.044396002
0.029386001 0.18380301 -0.010405
0.029417999 0.21976601 -0.033023998
0.029484 0.091353998 0.055372
0.029539 0.20708799 0.021462001
0.029793 0.00281 0.044268999
0.029855 0.18313199 0.010415
0.029911 0.003299 0.044840999
0.029996 0.035468999 0.060653999
0.030076001 0.001692 0.045394
0.030166 0.18603399 0.0050889999
0.030242 0.185275 -0.0051250001
0.030291 0.228993 -0.024453999
0.030351 0.0069129998 0.03926
0.030383 0.188113 -0.0050050002
0.030412 0.16232701 0.046799
0.03046 0.175476 0.044836
0.03049 0.229362 0.025307
0.030531 0.0041180002 0.043960001
0.030568 0.203316 0.039002001
0.030637 0.035386 -0.059765998
0.030672001 0.0056360001 0.040630002
0.0307 0.003299 -0.044628002
0.030719999 0.174136 -0.044218
0.030771 0.202079 0.035751998
0.0308 0.001042 -0.048370998
0.030820001 0.18671399 -0.0054549999
0.030850001 0.21419901 0.03486
0.030885 0.189478 -0.0049629998
0.030911 0.180676 -0.010302
0.030944999 0.202447 0.036166001
0.030982001 0.197785 0.019088
0.031017 0.173832 0.041329999
0.03104 0.18317799 0.004923
0.031066 0.17375 -0.041329
0.031124 0.20570099 0.019856
0.031144001 0.037174001 0.057744
0.031191001 0.036952 0.057822999
0.031223999 0.18424 -0.0055
0.031279001 0.036219999 0.059751999
0.031302001 0.20234799 -0.036014002
0.031337999 0.036169 0.060013998
0.031376 0.036026001 0.057562999
0.031394001 0.18417899 -0.0051899999
0.031442001 0.181206 -0.010437
0.031461 0.18922099 -0.0053900001
0.031477999 0.219808 0.031755
0.031513002 0.036253002 0.058954
0.031555999 0.174339 -0.041386001
0.031566001 0.22691 -0.027141999
0.031610001 0.20633499 0.014999
0.031684998 0.183478 -0.0051970002
0.031722002 0.173068 0.044197999
0.031769 0.18176401 0.0049840002
0.031810999 0.013362 0.061064001
0.031881001 0.152365 0.047162998
0.031939 0.036183 -0.060015
0.031980999 0.03754 -0.057534002
0.032016002 0.228975 -0.022155
0.032023001 0.00096799998 -0.051024999
0.032074001 0.037083 -0.057645999
0.032106999 0.179464 -0.010314
0.032177001 0.177112 0.02077
0.032221001 0.203629 0.03695
0.032246001 0.036564 -0.058104999
0.032304998 0.036460999 -0.058315001
0.032384001 0.182154 0.0052069998
0.03241 0.036385 -0.058777999
0.032450002 0.23886 0.016531
0.032499 0.20267899 -0.035048999
0.032533001 0.20281 -0.037907999
0.032551002 0.207424 -0.037455
0.032625999 0.202975 -0.035289001
0.032659002 0.22896799 0.021198999
0.032683998 0.20278201 -0.036517002
0.032710999 0.17764901 -0.020861
0.032728001 0.20221999 0.035622001
0.032809 0.17195401 0.041294001
0.032880999 0.035700999 -0.059316002
0.032912001 0.043001998 -0.056129001
0.033025999 0.18488801 -0.00025799999
0.033036001 0.185038 -0.00026
0.033070002 0.18488801 -0.000159
0.03308 0.18571199 -0.000268
0.033100002 0.18600801 0.000272
0.033135999 0.036594 -0.056937002
0.033149999 0.186 -0.00016900001
0.033167999 0.17154101 -0.044169001
0.033176001 0.042279001 0.056915
0.033186998 0.186224 -0.00017100001
0.033204999 0.183521 0.000142
0.033222999 0.183525 4.8000002e-05
0.033264998 0.18310399 -0.00022099999
0.033294 0.183111 0.00013499999
0.033314001 0.183116 0
0.033337999 0.0026130001 -0.056382999
0.033372 0.036630999 -0.058098
0.033429001 0.036571 -0.058325
0.033466998 0.18729299 -0.000176
0.033512 0.182354 -0.000204
0.033604998 0.204798 -0.014525
0.033606999 0.242062 0.0097340001
0.033707 0.172107 0.044764999
0.033725999 0.184461 0.00062200002
0.033736002 0.185911 0.00068
0.033774 0.18395799 -0.00059800001
0.033782002 0.186204 -0.000688
0.033794001 0.18385901 0.00059200003
0.033833001 0.18144 0.000184
0.033851001 0.18493199 0.00013499999
0.033859 0.188334 -0.00028499999
0.033861998 0.202226 -0.034281
0.033868 0.183971 0.00036800001
0.033907998 0.188308 -0.00017699999
0.033916 0.18397801 -0.000124
0.033923998 0.18365701 0.000355
0.033941001 0.224401 -0.027442999
0.033968002 0.18366501 0.00012
0.033994999 0.202591 0.037464
0.034012999 0.225061 0.025293
0.034029 0.18714499 0.00070600002
0.034058999 0.18315101 -0.00028000001
0.034088999 0.18315899 -0
0.034136999 0.22895201 0.018735001
0.034168001 0.18257099 -0.000512
0.034221999 0.187077 -0.000149
0.034251001 0.188987 0.000283
0.034277 0.0073520001 0.060068
0.034281 0.242062 -0.006999
0.034306001 0.203288 0.037206002
0.034363002 0.23886 -0.012342
0.034384999 0.189179 0.000283
0.03441 0.188022 0.00071200001
0.034428 0.013276 0.060447998
0.034451999 0.18912999 -5.9999998e-05
0.034474 0.180168 -0.000151
0.03449 0.20263 -0.037707001
0.034508001 0.203275 -0.037154999
0.034538999 0.18797401 0.000444
0.034565002 0.013315 0.061198
0.034602001 0.187941 0.000151
0.034641001 0.23886 0.011253
0.034667999 0.203196 -0.037949
0.034712002 0.171013 -0.044741001
0.034731001 0.132753 0.049233001
0.034735002 0.21908 -0.031075999
0.034747999 0.037599999 0.05624
0.034775998 0.18863399 -0.00070899999
0.034795001 0.013263 0.060350001
0.034889001 0.188558 -0.00044199999
0.034903001 0.003299 0.043494001
0.034938 0.170764 0.041317001
0.034952 0.188879 0.00070500001
0.034984998 0.013299 -0.061087001
0.035023 0.036812 0.059099
0.035046998 0.037039999 0.057517
0.03506 0.188798 -0.000439
0.035073999 0.001692 -0.044043999
0.035106 0.190027 -0.000275
0.035115998 0.188757 -0.000149
0.035140999 0.229362 0.018159
0.035154998 0.180558 -0
0.035172999 0.036878999 0.057955999
0.035207 0.242062 0.0096749999
0.035234999 0.17904399 0.000121
0.035257 0.042663999 -0.059080001
0.035291001 0.204184 -0.0088529997
0.035296001 0.169191 0.041237
0.035390001 0.169081 0.044121999
0.035443999 0.228939 -0.016070999
0.035457999 0.22506499 0.023642
0.035528999 0.224434 -0.025824999
0.035551999 0.2049 -0.0088529997
0.035594001 0.190447 -0.000268
0.035643 0.036929 -0.058959998
0.035684999 0.179656 -0.00031500001
0.035687 0.042744 0.058991998
0.035707999 0.051143002 0.057521999
0.035719 0.036823999 -0.059204001
0.035744999 0.043538999 -0.058137
0.035783 0.12273 0.050269
0.035806999 0.179508 0.00030399999
0.035845 0.242062 -0.0069519999
0.035911001 0.001042 -0.046992
0.035951 0.17816 -9.6999996e-05
0.035955999 0.17816401 4.8999998e-05
0.035989001 0.23886 -0.0057029999
0.036017001 0.001046 -0.052909002
0.036033999 0.042826001 -0.058913
0.03607 0.229362 -0.016278001
0.036084998 0.204706 -0.0059310002
0.036098 0.190805 0.000161
0.036123 0.229362 0.016195999
0.036162999 0.17793401 9.1000002e-05
0.036169 0.177939 3.1e-05
0.036205001 0.122642 -0.05099
0.036253002 0.20294701 0.036582999
0.036262002 0.22893 -0.014169
0.036308002 0.201793 -0.03345
0.036332998 0.201148 -0.033890001
0.036400001 0.20459101 -0.0028649999
0.036412999 0.19014101 0.00040700001
0.036435999 0.201287 -0.034102999
0.036448002 0.19030599 0.00065100001
0.036504 0.178663 -0.000243
0.036517002 0.061338998 0.056485001
0.036522001 0.17867801 -0
0.036548 0.20149501 -0.034301002
0.036596999 0.0031880001 -0.054995
0.036642998 0.0041180002 -0.042263001
0.036701001 0.16873699 -0.044693001
0.036710002 0.00096799998 0.049761001
0.036719002 0.178468 -0
0.036738999 0.200957 0.033466
0.036761001 0.00021899999 0.049892999
0.036802001 0.225069 -0.021924
0.036842 0.201042 0.033707
0.036904 0.201777 0.033448
0.036947999 0.037323002 -0.056095999
0.036965001 0.201644 -0.033206999
0.037005 0.112373 -0.052037999
0.037029002 0.162331 0.044849001
0.037048999 0.20136701 0.034097001
0.037066001 0.037041999 -0.056343
0.037071001 0.20141301 0.034131002
0.037129998 0.037266999 -0.058463
0.037147 0.0051759998 -0.056974001
0.037174001 0.21991999 -0.027434001
0.037227999 0.037362002 -0.057255
0.037300002 0.190799 -0.00060500001
0.037326999 0.202372 0.034037001
0.037351001 0.037292998 -0.057721999
0.037383001 0.00281 0.042121001
0.037416 0.043912001 -0.055165999
0.037441 0.20254201 -0.034384999
0.037482999 0.20253301 0.034370001
0.037542 0.228918 0.010317
0.037560999 0.228918 0.01024
0.037599001 0.201903 0.036410999
0.037627 0.229362 -0.01238
0.037696999 0.201867 0.035076998
0.037739001 0.0072679999 -0.059105001
0.037751999 0.081211001 0.055181999
0.037790999 0.2077 -0.035084002
0.037815001 0.043223999 -0.055914
0.037859999 0.013155 -0.059537999
0.037904002 0.202573 0.036876999
0.037987001 0.191809 0.00021699999
0.038008001 0.038733002 -0.056194998
0.038043 0.22507399 0.020142
0.038059 0.191826 0.00019999999
0.038063999 0.013184 0.060272001
0.038068999 0.19179399 6.2999999e-05
0.038114 0.201749 -0.03466
0.03816 0.044092 0.054993998
0.038213 0.191159 -0.00054400001
0.038238 0.191139 0.000482
0.038249999 0.191098 -0.00033099999
0.038260002 0.19105799 -0.000172
0.038263001 0.191047 0
0.038350999 0.20185401 -0.036419999
0.038417 0.043370999 -0.055774
0.038451999 0.202044 -0.036587998
0.038495999 0.20216499 -0.036635999
0.038561001 0.20242999 -0.036649998
0.038612001 0.043419998 0.055728
0.038667001 0.037586 0.058102999
0.038702 0.037579 0.058239002
0.038706001 0.22890601 0.0041419999
0.03875 0.035466 0.058088001
0.038802002 0.175083 8.6e-05
0.038823999 0.0041180002 -0.041559
0.038869999 0.22890501 -0.002075
0.03889 0.035308 -0.058850002
0.038908999 0.037643 0.057360001
0.038942002 0.037023 0.056596
0.038954001 0.229362 0.007253
0.039078001 0.152797 0.045848999
0.039175998 0.225079 -0.018302999
0.039235 0.044367 0.057346001
0.039352 0.043609999 -0.058159001
0.039402999 0.165553 -0.041219
0.039476 0.192008 0.000172
0.039535999 0.229362 -0.001517
0.039563999 0.037434001 -0.058488
0.039639998 0.00281 -0.041428
0.039670002 0.17414699 8.5e-05
0.039692 0.163977 0.044027001
0.039767001 0.200748 -0.033101998
0.039833002 0.20034701 0.032593999
0.039949998 0.200486 0.032811999
0.03999 0.200996 -0.032205999
0.040015001 0.19207899 -0.000166
0.040036999 0.201052 -0.032292999
0.040089998 0.201139 -0.032375
0.040105 0.201463 -0.032669
0.040144999 0.002294 -0.042975001
0.040192999 0.00096799998 -0.048691001
0.040220998 0.174657 0.000212
0.040229999 0.202705 0.034960002
0.040291999 0.20783199 -0.033755999
0.040330999 0.21927799 0.02641
0.040403999 0.201001 0.033305001
0.040472999 0.162984 -0.041122001
0.040527999 0.00153 0.044146001
0.040598001 0.201922 -0.033652
0.040610999 0.0056360001 -0.037618998
0.040697999 0.201151 0.033973001
0.040729001 0.006327 -0.037919
0.040849 0.037946001 -0.055427
0.04087 0.038509998 -0.055939998
0.040934999 0.20186099 0.034931999
0.040948998 0.213718 -0.030215999
0.040963002 0.16235299 0.041111998
0.041034002 0.03827 -0.056340002
0.041074 0.20196401 0.035719
0.041110002 0.201023 -0.033808999
0.041111998 0.201032 0.033813
0.041129999 0.037413001 -0.056866001
0.041170001 0.038206998 -0.056811001
0.041251 0.20114601 0.035386998
0.041308001 0.201232 0.035482001
0.041382 0.163019 0.044583
0.041397002 0.00085200003 0.046810001
