# .PCD v0.7 - Point Cloud Data file format
VERSION 0.7
FIELDS x y z
SIZE 4 4 4
TYPE F F F
COUNT 1 1 1
WIDTH 385
HEIGHT 1
VIEWPOINT 0 0 0 1 0 0 0
POINTS 385
DATA ascii
-0.015645999 0.25832301 0.000356
-0.015578 0.242525 0.001503
-0.015452 0.25832301 -0.002483
-0.015401 0.25871101 -0.002475
-0.015253 0.25907299 -0.002451
-0.015126 0.25907299 0.003143
-0.014988 0.25832301 -0.0044479999
-0.014892 0.25938299 0.0030950001
-0.014736 0.25938299 -0.0037690001
-0.014588 0.25962201 0.003031
-0.014492 0.25832301 0.005907
-0.014332 0.25938299 -0.0050940001
-0.014234 0.259772 0.0029579999
-0.014086 0.25938299 0.0057410002
-0.013971 0.25982299 -0.0022450001
-0.013854 0.25982299 0.002879
-0.013709 0.25982299 -0.0035059999
-0.013618 0.25852299 0.000932
-0.013505 0.25938299 0.0069980002
-0.013364 0.242525 -0.002777
-0.013229 0.25962201 0.0068549998
-0.013103 0.25982299 0.0053400001
-0.012862 0.242525 0.0045710001
-0.012823 0.25832301 0.0089440001
-0.01259 0.259772 -0.0072690002
-0.012321 0.25871101 0.0095659997
-0.012203 0.25907299 0.009474
-0.01212 0.25852299 0.0062799999
-0.011873 0.25871101 -0.010117
-0.011577 0.25938299 -0.0098649999
-0.011341 0.25962201 -0.009664
-0.011152 0.25852299 -0.0078720003
-0.010904 0.25871101 -0.011155
-0.01077 0.25982299 -0.0091770003
-0.010385 0.25871101 0.01164
-0.010137 0.25832301 0.011907
-0.0099759996 0.25852299 0.0093170004
-0.0098299999 0.26687899 -0.00028099999
-0.0097789997 0.267005 0.00083999999
-0.0097420001 0.26663399 0.00083700003
-0.0096930005 0.26663399 0.001177
-0.0096500004 0.267221 0.00082900003
-0.0095870001 0.267221 -0.001378
-0.0095619997 0.26729801 0.000386
-0.0094929999 0.267221 0.001924
-0.00942 0.25982299 0.010558
-0.0093679996 0.267221 -0.0024619999
-0.0093339998 0.267005 0.003033
-0.0092700003 0.26729801 -0.0024369999
-0.0091639999 0.26687899 -0.0035679999
-0.0091120005 0.26663399 -0.003547
-0.0089459997 0.26687899 0.0040850001
-0.0088940002 0.26663399 0.0040620002
-0.0087320004 0.25832301 -0.012988
-0.0086810002 0.267005 -0.0045799999
-0.0086190002 0.25907299 -0.012821
-0.0085659996 0.267221 -0.00452
-0.0084560001 0.26663399 -0.0048819999
-0.0083729997 0.26663399 0.005049
-0.0082080001 0.26729801 0.00495
-0.0081049995 0.25871101 0.013328
-0.0080270004 0.25907299 0.0132
-0.0079030003 0.25938299 0.012996
-0.0077880002 0.26687899 0.0060049999
-0.0077320002 0.26712099 0.0059620002
-0.0076700002 0.267221 0.0059150001
-0.0075900001 0.26729801 0.0058530001
-0.007485 0.25995699 -0.00047100001
-0.0074180001 0.267005 -0.0064269998
-0.007367 0.25995699 0.001405
-0.007303 0.25938299 -0.013342
-0.0072389999 0.25982299 0.0034060001
-0.0071330001 0.25995699 0.002318
-0.007092 0.242525 -0.011663
-0.0070529999 0.26687899 0.006854
-0.0070250002 0.261316 0.000235
-0.0070079998 0.26032299 -0.0013370001
-0.0069960002 0.26107699 0.00023400001
-0.0069809998 0.259772 -0.012753
-0.0069360002 0.26011601 -0.0022539999
-0.006916 0.26082301 0.00099500001
-0.0068819998 0.25832301 0.014056
-0.0068370001 0.261316 -0.0016289999
-0.006794 0.25982299 -0.012412
-0.006786 0.25995699 -0.0031930001
-0.006755 0.25982299 0.0042869998
-0.0066860002 0.26107699 0.002074
-0.006641 0.26675299 -0.0072360002
-0.006604 0.26107699 0.0022849999
-0.0065520001 0.25962201 0.013382
-0.0064810002 0.26729801 -0.007061
-0.006424 0.26154 0.0030479999
-0.0063629998 0.26082301 -0.002906
-0.0063339998 0.26082301 0.0029800001
-0.0062250001 0.26687899 0.007613
-0.0061889999 0.26663399 0.0075690001
-0.0061579999 0.26011601 -0.003908
-0.0061309999 0.267221 0.0074979998
-0.006023 0.26032299 -0.003823
-0.0059389998 0.260564 -0.0037690001
-0.0059099998 0.26082301 0.0037509999
-0.005845 0.26154 0.004034
-0.005773 0.26675299 -0.0079460004
-0.0057270001 0.26154 -0.00422
-0.0056369998 0.25982299 -0.012978
-0.0055749998 0.25832301 0.014623
-0.0054970002 0.26032299 0.0045469999
-0.005438 0.25852299 -0.01252
-0.0054190001 0.25938299 0.014213
-0.0053170002 0.26687899 0.0082729999
-0.0052990001 0.259857 0.0056429999
-0.0052370001 0.267221 0.0081479996
-0.005134 0.25995699 0.005467
-0.005041 0.25982299 0.013222
-0.0049259998 0.25832301 0.014837
-0.0048409998 0.25907299 -0.014671
-0.0048219999 0.26107699 -0.0050559998
-0.0047920002 0.26082301 -0.005103
-0.0047149998 0.261316 0.0052129999
-0.0046950001 0.26107699 0.005192
-0.0045380001 0.26663399 0.0086479997
-0.004408 0.25995699 0.0060680001
-0.0043310001 0.267005 0.008808
-0.0042869998 0.26011601 -0.0059000002
-0.004222 0.25832301 0.01507
-0.0041350001 0.260564 -0.0056909998
-0.0041040001 0.25938299 0.014647
-0.0040259999 0.26154 0.0058650002
-0.00397 0.242525 -0.015138
-0.0039349999 0.27050599 0.00069399999
-0.003854 0.25982299 -0.0070099998
-0.003823 0.26675299 -0.0090469997
-0.0038060001 0.26663399 -0.0090070004
-0.0037700001 0.267221 -0.0089220004
-0.003729 0.259857 -0.006784
-0.0036830001 0.25852299 -0.013144
-0.003613 0.25995699 -0.0065720002
-0.0035649999 0.27045599 0.0020580001
-0.003487 0.25907299 -0.01505
-0.0034330001 0.25938299 -0.014818
-0.0033720001 0.26082301 0.0061340001
-0.003303 0.26154 0.0062930002
-0.0032810001 0.259772 -0.014163
-0.0032039999 0.26082301 0.006213
-0.003153 0.27045599 -0.0026459999
-0.003031 0.26729801 -0.009079
-0.0029579999 0.27045599 -0.002841
-0.0028339999 0.25832301 0.015391
-0.0027709999 0.26687899 -0.0094360001
-0.002755 0.25938299 0.014959
-0.0027290001 0.267221 -0.0092930002
-0.002685 0.26011601 0.0067810002
-0.002626 0.26032299 0.006633
-0.0025770001 0.26082301 -0.0065080002
-0.0024850001 0.27052301 -0.002962
-0.0023060001 0.261316 0.0066399998
-0.0022249999 0.26675299 0.009567
-0.0021929999 0.27045599 0.0034700001
-0.0020709999 0.25938299 -0.015069
-0.0020010001 0.25832301 -0.015516
-0.00199 0.25982299 0.0077490001
-0.0019330001 0.27052301 0.0033480001
-0.001925 0.259857 0.0074979998
-0.001859 0.242525 -0.013523
-0.0018570001 0.261316 -0.0067790002
-0.001795 0.27049801 0.000481
-0.001741 0.26082301 -0.0067799999
-0.001677 0.26687899 -0.0096899997
-0.001652 0.267221 -0.009544
-0.001566 0.26663399 0.0096359998
-0.0014140001 0.27052301 -0.0014140001
-0.0014 0.261316 0.0068879998
-0.001355 0.25962201 0.014838
-0.0013220001 0.26107699 -0.0068589998
-0.0011390001 0.26154 0.0070090001
-0.001113 0.26712099 0.0097009996
-0.001003 0.25982299 0.0079370001
-0.00096999999 0.259857 -0.0076799998
-0.00093699998 0.261316 -0.006966
-0.00091399997 0.26011601 0.0072349999
-0.00087699998 0.26082301 -0.006945
-0.00071499997 0.27045599 0.0040529999
-0.00069399999 0.27050599 0.0039349999
-0.000665 0.26082301 0.0069579999
-0.00057099998 0.26154 -0.0070759999
-0.00055699999 0.26712099 -0.0097479997
-0.000481 0.27049801 -0.001795
-0.00033000001 0.27045599 0.0040870002
0 0.25832301 0.01565
0 0.25938299 0.015211
-0 0.25982299 0.01415
0 0.26011601 -0.0072929999
-0 0.260564 0.007034
0 0.26154 -0.0071140002
0 0.26687899 0.0098339999
0 0.26729801 0.0095849996
0 0.27050599 -0.0039949999
-0 0.27052301 0.0038660001
0.000481 0.27049801 -0.001795
0.00055300002 0.267221 -0.0096699996
0.00056100002 0.26687899 -0.0098179998
0.00066399999 0.26107699 0.0069579999
0.00069199997 0.25938299 -0.015195
0.00071200001 0.25832301 -0.015634
0.00087699998 0.26082301 -0.006945
0.000894 0.26032299 0.0070779999
0.000933 0.26107699 -0.0069380002
0.00096999999 0.259857 -0.0076799998
0.0010019999 0.25832301 0.015604
0.001104 0.267221 0.0096230004
0.001121 0.26687899 0.0097700004
0.001314 0.27049801 0.001314
0.0013220001 0.27052301 0.003633
0.001394 0.26107699 0.0068600001
0.0014140001 0.27052301 -0.0014140001
0.0015369999 0.26729801 -0.0094550001
0.001634 0.26729801 -0.0094440002
0.0016749999 0.26675299 -0.0096779997
0.001741 0.26082301 -0.0067799999
0.001774 0.26032299 0.00691
0.001849 0.26107699 -0.0067509999
0.001859 0.25852299 -0.013523
0.001908 0.27045599 -0.003634
0.001932 0.27052301 0.00051799999
0.0019799999 0.259772 -0.014403
0.0020000001 0.27052301 -0
0.0020580001 0.27045599 0.0035649999
0.002171 0.26729801 0.0093360003
0.0022229999 0.267005 0.0095600002
0.002296 0.26107699 0.0066129998
0.0024850001 0.27052301 -0.002962
0.0025770001 0.26082301 -0.0065080002
0.002601 0.26082301 -0.0064969999
0.0026459999 0.27045599 0.003153
0.002724 0.27045599 0.0030749999
0.002755 0.26663399 -0.0093820002
0.0027670001 0.26675299 -0.009424
0.0028250001 0.25871101 0.015341
0.0029450001 0.25982299 0.0074379998
0.002992 0.242525 0.015361
0.003153 0.27045599 -0.0026459999
0.0031930001 0.25982299 -0.013785
0.0032550001 0.267221 0.0091220001
0.003301 0.26675299 0.0092510004
0.003363 0.25962201 -0.014515
0.003389 0.260564 0.0061639999
0.00346 0.27050599 0.0019980001
0.0035319999 0.25832301 -0.015246
0.003613 0.25995699 -0.0065720002
0.0036830001 0.242525 -0.013144
0.003729 0.259857 -0.006784
0.0037539999 0.27050599 0.001367
0.0038010001 0.26712099 -0.008994
0.003821 0.267005 -0.0090410002
0.003854 0.25982299 -0.0070099998
0.0039220001 0.259772 0.013999
0.0039659999 0.25832301 -0.015125
0.0040250001 0.27045599 0.00082100002
0.004102 0.27045599 0.000165
0.0041350001 0.260564 -0.0056909998
0.0042090002 0.25871101 0.01502
0.0042869998 0.26011601 -0.0059000002
0.0043199998 0.26082301 0.0054930001
0.0043560001 0.261316 -0.0055160001
0.0044490001 0.26729801 -0.0084760003
0.0046689999 0.25962201 -0.01415
0.0047129998 0.26729801 -0.0083459998
0.0047920002 0.26082301 -0.005103
0.0048150001 0.260564 0.0051279999
0.004836 0.26687899 -0.0085629998
0.0049040001 0.25832301 -0.014862
0.0050320001 0.26107699 -0.0048659998
0.0051210001 0.26729801 0.0080979997
0.0052169999 0.26663399 -0.0082510002
0.005287 0.26107699 0.0045799999
0.0053099999 0.26675299 0.0082630003
0.0053940001 0.26082301 0.004462
0.005438 0.242525 -0.01252
0.0054759998 0.25982299 0.0058320002
0.0055570002 0.25871101 0.014575
0.0056349998 0.26107699 -0.004152
0.0056960001 0.26107699 -0.0040569999
0.0057689999 0.267005 -0.0079399999
0.0057919999 0.259772 -0.013335
0.0059000002 0.26107699 0.003767
0.0059389998 0.260564 -0.0037690001
0.006023 0.26032299 -0.003823
0.0060669999 0.26729801 0.0074200002
0.0061579999 0.26011601 -0.003908
0.0061809998 0.26712099 0.007559
0.0062219999 0.25982299 0.012708
0.0063319998 0.25995699 0.0040190001
0.0063530002 0.26107699 -0.002901
0.006393 0.259772 0.013057
0.0064790002 0.26663399 -0.0073119998
0.0065489998 0.267221 -0.0071359999
0.006602 0.26712099 -0.0071939998
0.006639 0.26154 -0.0025569999
0.0066570002 0.26082301 0.0021629999
0.0067130001 0.261316 0.002082
0.006786 0.25995699 -0.0031930001
0.0067929998 0.25907299 0.013875
0.0068259998 0.26154 0.0019769999
0.0068760002 0.26082301 0.001312
0.0069090002 0.260564 0.001318
0.0069360002 0.26011601 -0.0022539999
0.0069769998 0.26107699 -0.000333
0.0069940002 0.261316 -0.00070400001
0.0070079998 0.26032299 -0.0013370001
0.0070199999 0.260564 0.00044199999
0.0070489999 0.26663399 0.0067710001
0.007092 0.25852299 -0.011663
0.0071200002 0.26032299 0.00044800001
0.0071640001 0.26011601 0.001367
0.0072789998 0.26011601 0.00045799999
0.0073620002 0.259857 0.0023920001
0.0074160001 0.26729801 0.006054
0.007485 0.25995699 -0.00047100001
0.0075639999 0.26663399 -0.006176
0.0076080002 0.25982299 0.002472
0.0077260002 0.259857 0.000486
0.0077780001 0.26675299 0.005998
0.0078950003 0.25982299 -0.011743
0.0079950001 0.267221 -0.005467
0.0081019998 0.267005 -0.0055399998
0.0081310002 0.25832301 0.013372
0.0083619999 0.26712099 0.0050420002
0.0084220003 0.26687899 0.0050789998
0.0085380003 0.242525 0.013116
0.0086139999 0.25852299 0.010588
0.0086519998 0.259772 0.011683
0.008719 0.26729801 0.0039820001
0.0088820001 0.26712099 0.0040560002
0.0089339996 0.26675299 0.0040799999
0.0090990001 0.26712099 -0.003543
0.0091530001 0.26675299 -0.0035629999
0.0092120003 0.267221 0.002993
0.0093139997 0.25832301 0.012577
0.0093599996 0.242525 -0.012542
0.0094029997 0.25962201 -0.011558
0.0094919996 0.267005 -0.0024949999
0.0095499996 0.26729801 0.00082000002
0.0095830001 0.26663399 0.001942
0.0096389996 0.26687899 0.001953
0.0096819997 0.267221 -0.00027700001
0.0097340001 0.26687899 -0.0014
0.0097740004 0.26663399 -0.000279
0.0098179998 0.26675299 -0.00028000001
0.0099189999 0.25962201 0.011118
0.010126 0.25938299 0.01135
0.010341 0.25982299 0.0096580004
0.010632 0.25938299 -0.010877
0.010889 0.25962201 0.01017
0.011152 0.242525 -0.0078720003
0.011291 0.25907299 0.010545
0.01156 0.25982299 -0.0081599997
0.011769 0.25962201 0.0091380002
0.012014 0.25938299 0.0093280002
0.012173 0.25962201 -0.0085920002
0.012254 0.25982299 -0.0070750001
0.012563 0.25982299 0.0065100002
0.012813 0.25938299 0.0081970003
0.012862 0.242525 0.0045710001
0.013014 0.25907299 0.0083250003
0.013199 0.259772 -0.0060939998
0.013364 0.25852299 -0.002777
0.013463 0.259772 0.0054870001
0.013553 0.25832301 -0.0078250002
0.013699 0.259772 -0.0048690001
0.01385 0.25871101 0.0071760002
0.013906 0.259772 0.0042400002
0.014085 0.259772 -0.003603
0.014209 0.25832301 -0.0065600001
0.01431 0.242525 -0.006335
0.014445 0.25871101 0.0058869999
0.014557 0.25907299 -0.0051739998
0.014711 0.25962201 -0.0023640001
0.014865 0.25962201 -0.0010169999
0.01497 0.25832301 0.0045639998
0.015112 0.25871101 -0.0038660001
0.015247 0.25832301 0.00348
0.015349 0.25907299 0.001755
0.015449 0.242525 -0.0024979999
0.015567 0.25832301 0.001502
0.015642 0.242525 -0.00050199998
