# .PCD v0.7 - Point Cloud Data file format
VERSION 0.7
FIELDS x y z
SIZE 4 4 4
TYPE F F F
COUNT 1 1 1
WIDTH 1554
HEIGHT 1
VIEWPOINT 0 0 0 1 0 0 0
POINTS 1554
DATA ascii
0.049814001 0.26854399 0.210218
0.049823999 0.23985399 0.170884
0.049826 0.23985399 0.243177
0.049851 0.26945001 0.20553
0.049862001 0.26946199 0.20522401
0.049864002 0.26825699 0.21037
0.049869001 0.24208701 0.233585
0.049872998 0.26820299 0.210388
0.049879 0.239986 0.171214
0.049881 0.239986 0.24284799
0.049885001 0.26938599 0.204905
0.049915999 0.26925501 0.204595
0.049938001 0.240059 0.242485
0.04995 0.24007 0.171653
0.049954001 0.26907101 0.204308
0.049996998 0.26884201 0.20405699
0.050044 0.26857701 0.203852
0.050092001 0.26829001 0.20369899
0.050101001 0.26822901 0.20367999
0.050365001 0.032513998 0.16774601
0.050365001 0.032513998 0.246316
0.050365001 0.210714 0.16774601
0.050365001 0.210714 0.246316
0.050377 0.030816 0.167841
0.050377 0.030816 0.24621999
0.050404001 0.213148 0.168044
0.050404001 0.213148 0.24601699
0.050455 0.028003 0.16843399
0.050455 0.028003 0.245627
0.050512999 0.228714 0.244388
0.050515 0.22371399 0.244372
0.050517 0.228379 0.24436
0.050519999 0.215437 0.16892099
0.050519999 0.215437 0.24514
0.050523002 0.223225 0.244311
0.050523002 0.22420201 0.244311
0.050535001 0.227907 0.24422
0.050547 0.222766 0.24413501
0.050547 0.22466099 0.24413501
0.050569002 0.227484 0.24396899
0.050585002 0.22236399 0.243852
0.050585002 0.225063 0.243852
0.050602 0.025356 0.169548
0.050602 0.025356 0.244514
0.050615001 0.227136 0.243624
0.050634999 0.22204401 0.243481
0.050634999 0.225383 0.243481
0.050671998 0.22688299 0.243205
0.050694 0.221826 0.243044
0.050694 0.225601 0.243044
0.050703999 0.21744099 0.170324
0.050703999 0.21744099 0.243737
0.050728001 0.26613301 0.208369
0.050735001 0.226742 0.24273799
0.050758 0.22172201 0.242567
0.050758 0.225706 0.242567
0.050779 0.226714 0.242406
0.050781999 0.221714 0.24238899
0.050781999 0.225714 0.24238899
0.050811999 0.022972001 0.171142
0.050811999 0.022972001 0.242919
0.050824001 0.26959401 0.208496
0.050825 0.269582 0.205562
0.050946999 0.21904001 0.172169
0.050946999 0.21904001 0.241892
0.050962001 0.238047 0.169616
0.05105 0.241841 0.234704
0.051077001 0.020939 0.173158
0.051077001 0.020939 0.240904
0.05108 0.241855 0.23462801
0.051137 0.241886 0.234467
0.051194001 0.24190199 0.234304
0.051258001 0.24191201 0.234118
0.051348001 0.266164 0.208361
0.051357001 0.26609299 0.205681
0.051389001 0.019331001 0.175521
0.051389001 0.019331001 0.23853999
0.05139 0.24177501 0.17917401
0.051399 0.26968101 0.20847499
0.051438998 0.241817 0.17932101
0.051488999 0.241762 0.17913599
0.051492002 0.24184699 0.17948
0.051538002 0.26842999 0.21033201
0.051543001 0.241864 0.17964201
0.051550999 0.268298 0.21033899
0.051594999 0.26785901 0.21030299
0.051635999 0.26741499 0.21016
0.051642001 0.241861 0.180002
0.051642001 0.241861 0.17978901
0.051654998 0.26720399 0.210048
0.051672 0.26700601 0.20991001
0.051686 0.266826 0.209749
0.051693 0.26845101 0.210327
0.051697999 0.26666799 0.20956901
0.051706001 0.266534 0.209374
0.051711999 0.266426 0.209169
0.051713999 0.26618299 0.20835701
0.051716 0.26628801 0.208748
0.051734 0.018208001 0.17814501
0.051734 0.018208001 0.235916
0.051747002 0.268457 0.20373601
0.051747002 0.24185 0.23430599
0.051954001 0.23803601 0.244552
0.051957998 0.228714 0.24448501
0.051961001 0.26973599 0.20559999
0.051995002 0.23803499 0.24455801
0.052101001 0.01761 0.180934
0.052101001 0.01761 0.233128
0.052322999 0.017514 0.18261699
0.052322999 0.017514 0.231444
0.052423 0.24002101 0.171253
0.052466001 0.269748 0.208459
0.052468002 0.23803499 0.169496
0.052469999 0.238033 0.244581
0.052471001 0.23837399 0.16949099
0.052471999 0.26975399 0.208767
0.052475002 0.23837399 0.24457
0.052482001 0.23872299 0.169585
0.052483998 0.26967499 0.209088
0.052485 0.238722 0.244477
0.052498002 0.23906 0.169745
0.052501 0.269541 0.209399
0.052501999 0.23906 0.244316
0.052519001 0.23936599 0.16997001
0.052521002 0.269353 0.20968699
0.052522998 0.23936599 0.244091
0.052544001 0.26911899 0.209939
0.052544001 0.23962399 0.170249
0.052547999 0.23962399 0.24381199
0.052568998 0.26884899 0.210143
0.052572001 0.239822 0.17056599
0.052575 0.239822 0.243496
0.052595001 0.268558 0.21029501
0.052599002 0.26849601 0.210316
0.052600998 0.239953 0.170901
0.052604001 0.239953 0.24316099
0.052629001 0.24002001 0.171244
0.052641999 0.240033 0.24270999
0.052724998 0.26977101 0.205608
0.052731 0.26977301 0.205299
0.052742001 0.269694 0.204978
0.052756999 0.26956001 0.204666
0.052774999 0.26937199 0.20437799
0.052797001 0.269137 0.204127
0.052818999 0.26886699 0.203922
0.052843001 0.268576 0.20377
0.052847002 0.26851001 0.203749
0.052937001 0.24164701 0.23526999
0.053018998 0.228714 0.169421
0.05302 0.22371399 0.169438
0.053020999 0.228379 0.169449
0.053024001 0.223225 0.169498
0.053024001 0.22420201 0.169498
0.053031001 0.227907 0.16959099
0.053036001 0.222766 0.16967601
0.053036001 0.22466099 0.16967601
0.053047001 0.227484 0.169843
0.053055 0.22236399 0.16996001
0.053055 0.225063 0.16996001
0.053071 0.227136 0.17019001
0.05308 0.22204401 0.170334
0.05308 0.225383 0.170334
0.053098999 0.22688299 0.17061201
0.053105 0.241643 0.235283
0.05311 0.221826 0.170774
0.05311 0.225601 0.170774
0.053130001 0.226742 0.171082
0.053134002 0.24168 0.23514999
0.053142 0.22172201 0.17125399
0.053142 0.225706 0.17125399
0.053153001 0.226714 0.171417
0.053153999 0.221714 0.171433
0.053153999 0.225714 0.171433
0.053165 0.24171001 0.23499601
0.053195 0.24172699 0.23484001
0.053229 0.24173801 0.23466299
0.053272001 0.26853001 0.20375399
0.053277999 0.26842701 0.20375501
0.053302001 0.26798701 0.20379201
0.053326 0.267544 0.203935
0.053344999 0.26713401 0.20418601
0.053353 0.26695499 0.204347
0.05336 0.26679701 0.20452701
0.053367998 0.26655501 0.204926
0.053371001 0.26641801 0.205346
0.053374998 0.266307 0.205736
0.053509001 0.24164499 0.17877901
0.053518001 0.241659 0.178847
0.053544 0.241689 0.17900001
0.053569 0.241706 0.17915601
0.053573001 0.241712 0.23474599
0.053608999 0.241733 0.179378
0.053766001 0.241707 0.234763
0.053766999 0.241723 0.179345
0.054152001 0.238021 0.16936199
0.054457001 0.266422 0.20576499
0.054465 0.241677 0.179199
0.054621998 0.269885 0.208426
0.054691002 0.241576 0.17857
0.05525 0.24161001 0.235366
0.055252001 0.24159101 0.235447
0.055254001 0.241639 0.23521499
0.055257 0.241657 0.235062
0.055261999 0.241667 0.23489501
0.055351 0.238019 0.169337
0.055351 0.23836 0.169379
0.055351 0.238381 0.16938201
0.055351 0.238502 0.169397
0.055351999 0.23870599 0.169475
0.055351999 0.238729 0.169484
0.055351999 0.238957 0.169571
0.055353001 0.239043 0.169631
0.055353001 0.23905601 0.169641
0.055353999 0.239356 0.16985001
0.055355001 0.238019 0.24472401
0.055355001 0.23836 0.244682
0.055355001 0.238381 0.244679
0.055355001 0.238502 0.244665
0.055355001 0.23959599 0.17012499
0.055356 0.23960599 0.170137
0.055356 0.23870599 0.244587
0.055356 0.238729 0.244578
0.055356 0.239675 0.17021701
0.055356 0.269894 0.20563699
0.055356 0.269894 0.208424
0.055356 0.238957 0.24449
0.055357002 0.26986101 0.20874199
0.055357002 0.269862 0.20874
0.055357002 0.269853 0.20882601
0.055357002 0.26986 0.20532
0.055357002 0.26986 0.205322
0.055357002 0.239043 0.24443001
0.055357002 0.269849 0.20521601
0.055357002 0.23905601 0.24442101
0.055357002 0.269775 0.209056
0.055357002 0.269779 0.20500401
0.055357002 0.239786 0.170434
0.055357002 0.269739 0.209162
0.055357002 0.26974401 0.204897
0.055357002 0.23979799 0.17045601
0.055357002 0.26971799 0.20481899
0.055357002 0.26969701 0.209289
0.055357002 0.269642 0.204695
0.055357002 0.26964599 0.20936801
0.055358 0.269532 0.204515
0.055358 0.269447 0.204377
0.055358 0.269532 0.209546
0.055358 0.239356 0.244212
0.055358 0.269247 0.20418601
0.055358 0.26921901 0.20415799
0.055358 0.269427 0.20970801
0.055358 0.239897 0.17065001
0.055358 0.26909101 0.204035
0.055358 0.268951 0.203954
0.055358 0.26889801 0.203924
0.055358998 0.26868299 0.20379999
0.055358998 0.268664 0.20379201
0.055358998 0.26863101 0.203778
0.055358998 0.269247 0.209876
0.055358998 0.269218 0.209903
0.055358998 0.239925 0.17076901
0.055358998 0.23992901 0.17079
0.055358998 0.26906601 0.21004499
0.055358998 0.23959599 0.243936
0.055360001 0.23960599 0.24392401
0.055360001 0.268951 0.210107
0.055360001 0.26889801 0.210136
0.055360001 0.239675 0.243844
0.055360001 0.26866201 0.21026599
0.055360001 0.26863101 0.210283
0.055360999 0.240007 0.17112499
0.055360999 0.239786 0.243628
0.055360999 0.23979799 0.243605
0.055362001 0.239897 0.243411
0.055362999 0.239925 0.243293
0.055362999 0.23992901 0.24327201
0.055364002 0.240007 0.242937
0.055443 0.241662 0.23491099
0.055443998 0.238019 0.169337
0.055445999 0.238019 0.24472401
0.055535 0.238019 0.169337
0.055535 0.238383 0.16937
0.055535 0.23873401 0.16947
0.055535 0.239062 0.169631
0.055535 0.239356 0.16984899
0.055535 0.239604 0.170118
0.055535 0.23979899 0.17042699
0.055535 0.239935 0.170766
0.055535 0.240007 0.171124
0.055537 0.017514 0.18240701
0.055537 0.017514 0.231655
0.055537 0.01761 0.180709
0.055537 0.01761 0.233353
0.055537 0.018208001 0.17789599
0.055537 0.018208001 0.236165
0.055537 0.019331001 0.175249
0.055537 0.019331001 0.238812
0.055537 0.020939 0.172866
0.055537 0.020939 0.24119601
0.055537 0.022972001 0.17083199
0.055537 0.022972001 0.243229
0.055537 0.025356 0.16922399
0.055537 0.025356 0.244837
0.055537 0.028003 0.168101
0.055537 0.028003 0.24596
0.055537 0.030816 0.167503
0.055537 0.030816 0.246558
0.055537 0.032513998 0.16740701
0.055537 0.032513998 0.246655
0.055537 0.210714 0.16740701
0.055537 0.210714 0.246655
0.055537 0.213148 0.16770799
0.055537 0.213148 0.246354
0.055537 0.215437 0.16859201
0.055537 0.215437 0.245469
0.055537 0.21744099 0.170008
0.055537 0.21744099 0.244054
0.055537 0.21904001 0.171868
0.055537 0.21904001 0.242193
0.055537 0.221714 0.171354
0.055537 0.221714 0.171868
0.055537 0.221714 0.242193
0.055537 0.221714 0.242708
0.055537 0.22172201 0.24288701
0.055537 0.221826 0.243368
0.055537 0.22204401 0.24381
0.055537 0.22236399 0.244184
0.055537 0.222766 0.244469
0.055537 0.223225 0.244647
0.055537 0.22371399 0.244708
0.055537 0.22420201 0.244647
0.055537 0.22466099 0.244469
0.055537 0.225063 0.244184
0.055537 0.225383 0.24381
0.055537 0.225601 0.243368
0.055537 0.225706 0.24288701
0.055537 0.225714 0.171354
0.055537 0.225714 0.172051
0.055537 0.225714 0.242011
0.055537 0.225714 0.242708
0.055537 0.226714 0.17133699
0.055537 0.226714 0.172051
0.055537 0.226714 0.242011
0.055537 0.226714 0.242724
0.055537 0.226742 0.24305899
0.055537 0.22688299 0.243531
0.055537 0.227136 0.243954
0.055537 0.227484 0.244302
0.055537 0.227907 0.244555
0.055537 0.228379 0.24469601
0.055537 0.228714 0.169421
0.055537 0.228714 0.24472401
0.055537 0.238019 0.169337
0.055537 0.238019 0.24472401
0.055539001 0.240007 0.242937
0.055539001 0.239935 0.243296
0.055539001 0.23979899 0.243635
0.055539001 0.239604 0.243944
0.055539001 0.239356 0.244212
0.055539001 0.23873401 0.244592
0.055539001 0.239062 0.24443001
0.055539001 0.238019 0.24472401
0.055539001 0.238383 0.244691
0.055628002 0.238019 0.169337
0.055629998 0.238019 0.24472401
0.055631999 0.241685 0.179226
0.055633999 0.241592 0.178619
0.055635002 0.24165601 0.178997
0.055636 0.241639 0.178844
0.055636998 0.24160901 0.178692
0.055709001 0.240007 0.17112499
0.055711001 0.23992901 0.17079
0.055711001 0.239925 0.17076901
0.055712 0.239897 0.17065001
0.055713002 0.23979799 0.17045601
0.055713002 0.239786 0.170434
0.055713002 0.240007 0.242937
0.055713002 0.26863101 0.203778
0.055713002 0.26866201 0.203795
0.055714 0.239675 0.17021701
0.055714 0.26889801 0.203925
0.055714 0.23960599 0.170137
0.055714 0.268951 0.203954
0.055714 0.23959599 0.17012499
0.055714 0.26906601 0.204017
0.055714998 0.23992901 0.24327201
0.055714998 0.239925 0.243293
0.055714998 0.269218 0.20415901
0.055714998 0.269247 0.20418601
0.055714998 0.26863101 0.210283
0.055714998 0.268664 0.21027
0.055714998 0.26868299 0.210262
0.055714998 0.26889801 0.21013699
0.055714998 0.268951 0.210107
0.055714998 0.239897 0.243411
0.055714998 0.26909101 0.210026
0.055716 0.269427 0.204354
0.055716 0.26921901 0.209903
0.055716 0.269247 0.209876
0.055716 0.239356 0.16985001
0.055716 0.269532 0.20451599
0.055716 0.269447 0.209684
0.055716 0.269532 0.209546
0.055716 0.26964599 0.204693
0.055716 0.269642 0.20936599
0.055716 0.26969701 0.204772
0.055716 0.26971799 0.209242
0.055716 0.23979799 0.243605
0.055716999 0.26974401 0.20916399
0.055716999 0.269739 0.204899
0.055716999 0.239786 0.243628
0.055716999 0.269779 0.209058
0.055716999 0.269775 0.20500501
0.055716999 0.23905601 0.169641
0.055716999 0.269849 0.208845
0.055716999 0.239043 0.169631
0.055716999 0.26986 0.20874199
0.055716999 0.26986 0.208739
0.055716999 0.269853 0.205236
0.055716999 0.26986101 0.205319
0.055716999 0.269862 0.205322
0.055716999 0.238957 0.169571
0.055716999 0.269894 0.208424
0.055716999 0.269894 0.20563699
0.055718001 0.239675 0.243844
0.055718001 0.238729 0.169484
0.055718001 0.23870599 0.169475
0.055718001 0.23960599 0.24392401
0.055718001 0.23959599 0.243936
0.055718001 0.238502 0.169397
0.055718001 0.238381 0.16938201
0.055718001 0.23836 0.169379
0.055718999 0.238019 0.169337
0.055720001 0.239356 0.244212
0.055721 0.23905601 0.24442101
0.055721 0.239043 0.24443001
0.055721 0.238957 0.24449
0.055721998 0.238729 0.244578
0.055721998 0.23870599 0.244587
0.055721998 0.238502 0.244665
0.055723 0.238381 0.244679
0.055723 0.23836 0.244682
0.055723 0.238019 0.24472401
0.055768002 0.266478 0.2087
0.055768002 0.266615 0.20912001
0.055769 0.266857 0.209519
0.055771001 0.267194 0.20986
0.055771001 0.266388 0.208305
0.055773001 0.26760301 0.21011101
0.055775002 0.268047 0.210254
0.055778001 0.26848701 0.210292
0.055778001 0.268628 0.21028399
0.056053001 0.24157099 0.23550799
0.056451999 0.269885 0.205635
0.056511 0.26642501 0.208296
0.056922 0.238021 0.244699
0.057138 0.241696 0.17926
0.057215001 0.241699 0.234791
0.057303 0.266343 0.208316
0.057303 0.26628399 0.20573001
0.057309002 0.241705 0.23477
0.057333 0.241698 0.23493201
0.057356 0.24168 0.23508701
0.057379 0.241651 0.23524
0.057388 0.241638 0.235302
0.057449002 0.26627699 0.20572899
0.057452001 0.266431 0.20535
0.057454001 0.26656899 0.20492999
0.057461999 0.26681 0.20453
0.057466999 0.26696801 0.20434999
0.057475001 0.26714799 0.204189
0.057491999 0.267557 0.20393801
0.057512999 0.26800099 0.203795
0.057534002 0.26844001 0.203758
0.057539999 0.26855099 0.203759
0.057677999 0.241733 0.179382
0.057712998 0.24171799 0.17919099
0.057741001 0.24169999 0.17903499
0.057769999 0.24167 0.178881
0.057797998 0.24162801 0.17873099
0.057920001 0.221714 0.171433
0.057920001 0.225714 0.171433
0.057921 0.226714 0.171417
0.057932001 0.22172201 0.17125399
0.057932001 0.225706 0.17125399
0.057943001 0.226742 0.171082
0.057964001 0.221826 0.170774
0.057964001 0.225601 0.170774
0.057975002 0.22688299 0.17061201
0.057992999 0.22204401 0.170334
0.057992999 0.225383 0.170334
0.058003001 0.227136 0.17019001
0.058017999 0.22236399 0.16996001
0.058017999 0.225063 0.16996001
0.058026001 0.227484 0.169843
0.058037002 0.222766 0.16967601
0.058037002 0.22466099 0.16967601
0.058042999 0.227907 0.16959099
0.058049001 0.223225 0.169498
0.058049001 0.22420201 0.169498
0.058053002 0.228379 0.169449
0.058053002 0.22371399 0.169438
0.058054999 0.228714 0.169421
0.058226999 0.26851001 0.21031199
0.058231 0.268576 0.210291
0.058254 0.26886699 0.21013901
0.058277 0.269137 0.20993499
0.058297999 0.26937199 0.209683
0.058316998 0.26956001 0.20939501
0.058332 0.269694 0.20908301
0.058343001 0.26977301 0.208763
0.058348998 0.26977101 0.208453
0.058432002 0.240033 0.171351
0.058444999 0.24002001 0.242817
0.05847 0.239953 0.170901
0.058472998 0.239953 0.24315999
0.058476001 0.26851001 0.203749
0.058479 0.268558 0.203766
0.058497999 0.239822 0.17056599
0.058502 0.239822 0.243496
0.058504999 0.26884899 0.203918
0.058525998 0.23962399 0.170249
0.058529001 0.23962399 0.24381199
0.058529999 0.26911899 0.20412301
0.058550999 0.23936599 0.16997001
0.058552999 0.269353 0.204374
0.058555 0.23936599 0.244091
0.058572002 0.23906 0.169745
0.058573 0.269541 0.204662
0.058575999 0.23906 0.244316
0.058587998 0.238722 0.16958401
0.058589 0.26967499 0.204974
0.058591999 0.23872299 0.244477
0.058598999 0.23837399 0.16949099
0.058602002 0.26975399 0.205294
0.058603 0.23837399 0.24457
0.058603998 0.238033 0.16948
0.058605 0.23803499 0.244565
0.058607999 0.269748 0.205603
0.058651 0.24002101 0.242808
0.058750998 0.017514 0.18261699
0.058750998 0.017514 0.231444
0.058972999 0.01761 0.180934
0.058972999 0.01761 0.233128
0.058977 0.26848799 0.20374399
0.059037998 0.241823 0.234393
0.059078 0.23803499 0.169504
0.059113 0.26973599 0.208462
0.059115 0.228714 0.24448501
0.059117999 0.238039 0.244525
0.059292 0.241735 0.235007
0.059292998 0.24184699 0.179745
0.059296999 0.241853 0.234299
0.059326001 0.268457 0.210325
0.05934 0.018208001 0.17814501
0.05934 0.018208001 0.235916
0.059351001 0.241845 0.234475
0.0594 0.24182899 0.23463599
0.059450001 0.241798 0.234795
0.059498999 0.24175499 0.234946
0.059652001 0.2419 0.179902
0.059675001 0.26968101 0.205587
0.059684999 0.019331001 0.175521
0.059684999 0.019331001 0.23853999
0.059721999 0.24188399 0.179704
0.059723999 0.24191099 0.179934
0.059726 0.24190401 0.23414201
0.059776001 0.241868 0.17954201
0.059783999 0.240043 0.242613
0.059799001 0.26608601 0.208382
0.059804998 0.26624 0.20875999
0.059810001 0.266379 0.209181
0.059815999 0.266487 0.20938601
0.059826002 0.26662099 0.209581
0.059831001 0.24183699 0.179381
0.059838999 0.26677901 0.20976099
0.059854999 0.26695901 0.209922
0.059858002 0.241826 0.179313
0.059873998 0.26715699 0.21006
0.059895001 0.26736799 0.210173
0.059941001 0.267811 0.210315
0.05999 0.26824999 0.21035101
0.059996001 0.020939 0.173158
0.059996001 0.020939 0.240904
0.060003001 0.26836699 0.210347
0.060112 0.238047 0.24444599
0.060121998 0.241817 0.234762
0.060125999 0.21904001 0.172169
0.060125999 0.21904001 0.241892
0.060247999 0.269582 0.208499
0.060249999 0.26959401 0.20556501
0.060261998 0.022972001 0.171142
0.060261998 0.022972001 0.242919
0.060292002 0.221714 0.24238899
0.060292002 0.225714 0.24238899
0.060293 0.26614001 0.205694
0.060293999 0.226714 0.242406
0.060316 0.22172201 0.242567
0.060316 0.225706 0.242567
0.060339 0.226742 0.24273799
0.060369 0.21744099 0.170324
0.060369 0.21744099 0.243737
0.060380001 0.221826 0.243044
0.060380001 0.225601 0.243044
0.060401998 0.22688299 0.243205
0.060439002 0.22204401 0.243481
0.060439002 0.225383 0.243481
0.060458001 0.227136 0.243624
0.060472 0.025356 0.169548
0.060472 0.025356 0.244514
0.060488999 0.22236399 0.243852
0.060488999 0.225063 0.243852
0.060504999 0.227484 0.24396899
0.060527001 0.222766 0.24413501
0.060527001 0.22466099 0.24413501
0.060538001 0.227907 0.24422
0.060550999 0.223225 0.244311
0.060550999 0.22420201 0.244311
0.060554001 0.215437 0.16892099
0.060554001 0.215437 0.24514
0.060557 0.228379 0.24436
0.060559001 0.22371399 0.244372
0.060561001 0.228714 0.244388
0.060617998 0.028003 0.16843399
0.060617998 0.028003 0.245627
0.06067 0.213148 0.168044
0.06067 0.213148 0.24601699
0.060695998 0.030816 0.167841
0.060695998 0.030816 0.24621999
0.060709 0.032513998 0.16774601
0.060709 0.032513998 0.246316
0.060709 0.210714 0.16774601
0.060709 0.210714 0.246316
0.060961001 0.24205101 0.233693
0.060973998 0.26823899 0.210379
0.060982 0.26829001 0.210362
0.06103 0.26857701 0.210209
0.061076 0.26884201 0.210005
0.06112 0.26907101 0.20975401
0.061122999 0.24007 0.24240901
0.061136 0.240059 0.17157599
0.061158001 0.26925501 0.20946699
0.061189 0.26938599 0.20915601
0.061193001 0.239986 0.171214
0.061195001 0.239986 0.242847
0.061202001 0.268206 0.203674
0.061209001 0.26825699 0.20369101
0.061212 0.24209499 0.233567
0.061212 0.26946199 0.208837
0.061221998 0.26945001 0.20853201
0.061246999 0.23985399 0.170884
0.061250001 0.23985399 0.243177
0.061259001 0.26854399 0.203844
0.061292 0.242092 0.233751
0.061301 0.239656 0.170573
0.061303001 0.239656 0.243488
0.061305001 0.241965 0.17972299
0.061308 0.26880801 0.20404799
0.061349001 0.239398 0.17030001
0.061351001 0.239398 0.243761
0.061353002 0.26903701 0.204299
0.061367001 0.24207699 0.233922
0.061390001 0.23909201 0.17008001
0.061392002 0.23909201 0.243981
0.061393 0.26922101 0.204586
0.061420999 0.238756 0.16992299
0.061423 0.238756 0.244138
0.061425 0.26935101 0.204897
0.061441999 0.238409 0.16983201
0.061443999 0.242044 0.23409
0.061443999 0.238409 0.244229
0.061448999 0.23807099 0.169829
0.061448999 0.26942599 0.20521601
0.061450001 0.23807301 0.244224
0.061459001 0.269411 0.20552
0.061471 0.26590601 0.205631
0.061475001 0.266013 0.20524099
0.061480999 0.26615199 0.20482001
0.061485998 0.242029 0.234183
0.061489999 0.26626101 0.204614
0.061503999 0.266395 0.204419
0.061522 0.266554 0.204239
0.061531 0.24218 0.18072499
0.061544999 0.266734 0.204078
0.061570998 0.26693201 0.20394
0.061574999 0.240063 0.17161299
0.061601002 0.26714301 0.20382801
0.061648998 0.242148 0.180472
0.061666001 0.26758599 0.203687
0.061728999 0.242134 0.180299
0.061735 0.26802301 0.20365199
0.061753999 0.26813599 0.203657
0.061811 0.242101 0.18012901
0.061871 0.242072 0.18000101
0.06191 0.017514 0.183246
0.06191 0.017514 0.23081601
0.062236998 0.238083 0.169937
0.062244002 0.26807401 0.203641
0.062281001 0.26583099 0.20844799
0.062329002 0.26805899 0.21042401
0.062341001 0.26807499 0.210417
0.062350001 0.01761 0.18160599
0.062350001 0.01761 0.232456
0.062360998 0.225714 0.172723
0.062360998 0.225714 0.241338
0.062360998 0.226714 0.172723
0.062360998 0.226714 0.241338
0.062382001 0.21904001 0.172618
0.062382001 0.21904001 0.24144401
0.062396999 0.221714 0.172544
0.062396999 0.221714 0.24151701
0.062475 0.269281 0.208574
0.062559001 0.26803499 0.20363399
0.062642999 0.221714 0.172069
0.062642999 0.225714 0.172069
0.062647 0.226714 0.172052
0.062666997 0.238095 0.17003401
0.062666997 0.228714 0.17004199
0.062679 0.22172201 0.171893
0.062679 0.225706 0.171893
0.062712997 0.226742 0.17172401
0.062775001 0.221826 0.17142101
0.062775001 0.225601 0.17142101
0.062802002 0.032513998 0.168162
0.062802002 0.032513998 0.24589901
0.062802002 0.210714 0.168162
0.062802002 0.210714 0.24589901
0.062807001 0.22688299 0.171262
0.062811002 0.24236999 0.18128499
0.062863 0.22204401 0.17098901
0.062863 0.225383 0.17098901
0.062890999 0.227136 0.170848
0.062936999 0.22236399 0.17062201
0.062936999 0.225063 0.17062201
0.062960997 0.227484 0.170506
0.062994003 0.222766 0.170343
0.062994003 0.22466099 0.170343
0.063010998 0.227907 0.170259
0.063024998 0.242414 0.232655
0.063029997 0.223225 0.170168
0.063029997 0.22420201 0.170168
0.063038997 0.228379 0.17012
0.063042 0.22371399 0.170109
0.063045003 0.228714 0.170092
0.063077003 0.018208001 0.17888901
0.063077003 0.018208001 0.235173
0.063088998 0.26916501 0.205459
0.063093998 0.26558399 0.205543
0.063097 0.26561701 0.20851
0.063129 0.242424 0.23283599
0.06323 0.242412 0.23301999
0.063281998 0.238107 0.24392
0.063334003 0.242378 0.233199
0.063334003 0.24251001 0.18163501
0.063429996 0.242331 0.233357
0.063464999 0.242496 0.18141399
0.063570999 0.242484 0.181228
0.063640997 0.24236301 0.23326699
0.063679002 0.26776499 0.210502
0.063680001 0.24245 0.18104599
0.063689999 0.267811 0.21048599
0.063754 0.24242701 0.18092801
0.063762002 0.268089 0.210333
0.063762002 0.019331001 0.176332
0.063762002 0.019331001 0.237729
0.063767999 0.24013799 0.17215
0.063790001 0.240123 0.241978
0.063796997 0.26543301 0.208562
0.063805997 0.265558 0.20894501
0.063805997 0.265616 0.20915601
0.063813001 0.265699 0.20936801
0.063826002 0.265809 0.209574
0.063832 0.26834601 0.21012799
0.063845001 0.265944 0.209769
0.063872002 0.266103 0.20995
0.063873 0.240045 0.171721
0.063876003 0.240045 0.24234
0.063887998 0.26772201 0.203548
0.063896999 0.26856801 0.209878
0.063897997 0.267766 0.203563
0.063904002 0.26628399 0.21011101
0.063942 0.266482 0.21024901
0.063954003 0.239911 0.17140099
0.063954003 0.26874399 0.209592
0.063956 0.239911 0.24266
0.063971996 0.26804301 0.20371699
0.063983999 0.266693 0.21036001
0.064001001 0.26886901 0.20928399
0.064029999 0.26691201 0.210443
0.064032003 0.239712 0.17109901
0.064034 0.239712 0.242962
0.064035997 0.26894 0.208967
0.064043 0.26829901 0.20392101
0.064051002 0.268924 0.208667
0.064078003 0.26713401 0.210499
0.064103 0.239455 0.170835
0.064104997 0.239455 0.24322601
0.064110003 0.26852 0.204171
0.064162999 0.239151 0.170623
0.064165004 0.239151 0.24343801
0.064168997 0.26869601 0.204457
0.064176999 0.26756799 0.21053
0.064196996 0.267652 0.21053199
0.064208999 0.23881701 0.170472
0.064211003 0.23881701 0.243589
0.064217001 0.26881999 0.20476501
0.064240001 0.238472 0.170385
0.064242996 0.238473 0.24367601
0.06425 0.238139 0.170389
0.064251997 0.238139 0.243674
0.064253002 0.26889101 0.205081
0.064268999 0.268879 0.205383
0.064356998 0.240135 0.241886
0.064378999 0.020939 0.17403001
0.064378999 0.020939 0.240032
0.064410999 0.242571 0.23278999
0.064461 0.242561 0.18127599
0.064638004 0.21904001 0.173067
0.064638004 0.21904001 0.240995
0.064906001 0.022972001 0.172066
0.064906001 0.022972001 0.24199601
0.064942002 0.242652 0.181513
0.064960003 0.017514 0.18428101
0.064960003 0.017514 0.22978
0.064962998 0.221714 0.24144
0.064962998 0.225714 0.24144
0.064966999 0.226714 0.241456
0.065001003 0.242955 0.182753
0.065009996 0.22172201 0.241613
0.065009996 0.225706 0.241613
0.065027997 0.267499 0.21057101
0.065054998 0.226742 0.241779
0.065081999 0.26519001 0.20543601
0.065084003 0.240174 0.241602
0.065118998 0.21744099 0.171269
0.065118998 0.21744099 0.242792
0.065136999 0.221826 0.24207699
0.065136999 0.225601 0.24207699
0.065180004 0.22688299 0.24223401
0.065185003 0.24292301 0.182483
0.065214999 0.24301299 0.182896
0.065226004 0.26744801 0.203477
0.065242 0.242954 0.23125
0.065246001 0.242955 0.23124599
0.065254003 0.22204401 0.242503
0.065254003 0.225383 0.242503
0.065292001 0.227136 0.242642
0.065316997 0.238169 0.170628
0.065318003 0.242915 0.182282
0.065321997 0.025356 0.170513
0.065321997 0.025356 0.243549
0.065352999 0.22236399 0.242864
0.065352999 0.225063 0.242864
0.065384001 0.227484 0.24297801
0.065403 0.26514399 0.204997
0.065403 0.26520401 0.204785
0.065408997 0.26510799 0.20520601
0.065411001 0.265288 0.204574
0.065412 0.265073 0.20539901
0.065412998 0.26739499 0.20346101
0.065425999 0.26539901 0.204367
0.065428004 0.222766 0.243139
0.065428004 0.22466099 0.243139
0.065439999 0.2403 0.17327601
0.065449998 0.265535 0.204171
0.065449998 0.227907 0.243221
0.065453999 0.242878 0.182087
0.065475002 0.223225 0.243311
0.065475002 0.22420201 0.243311
0.065481998 0.26569501 0.20399
0.065485001 0.215437 0.169902
0.065485001 0.215437 0.244159
0.065488003 0.228379 0.243358
0.065490998 0.22371399 0.243369
0.065494999 0.228714 0.243385
0.065521002 0.26587501 0.20382901
0.065562002 0.242845 0.181931
0.065567002 0.26607299 0.203692
0.065605 0.26734501 0.210614
0.065609999 0.01761 0.182712
0.065609999 0.01761 0.23134901
0.065613002 0.028003 0.16942701
0.065613002 0.028003 0.244634
0.065618999 0.26628399 0.20358101
0.065676004 0.26650199 0.20349801
0.065692998 0.26732501 0.210619
0.065714002 0.213148 0.169048
0.065714002 0.213148 0.245014
0.065734997 0.26672199 0.203444
0.065766998 0.030816 0.16885
0.065766998 0.030816 0.24521101
0.065779999 0.26853299 0.20876899
0.065792002 0.032513998 0.16875701
0.065792002 0.032513998 0.245305
0.065792002 0.210714 0.16875701
0.065792002 0.210714 0.245305
0.065796003 0.26694101 0.203417
0.065857001 0.26715201 0.203416
0.065885 0.26725101 0.203419
0.066142999 0.228714 0.24315999
0.066155002 0.23820101 0.243192
0.066271 0.26839599 0.205255
0.066284999 0.238205 0.24315999
0.066347003 0.26711699 0.21068101
0.066354997 0.26713899 0.21067201
0.066363998 0.24332599 0.230391
0.066377997 0.24023999 0.241229
0.066394001 0.240227 0.172793
0.06645 0.26740599 0.210517
0.066512004 0.24013899 0.17242301
0.066514 0.24013899 0.24163701
0.066532999 0.26705301 0.203361
0.066533998 0.243331 0.23063099
0.066542998 0.26765099 0.21031301
0.066543996 0.26708299 0.203373
0.066616997 0.24000201 0.172115
0.066619001 0.24000201 0.241945
0.066629 0.26786101 0.21006399
0.066641003 0.267349 0.203528
0.066685997 0.018208001 0.180114
0.066685997 0.018208001 0.23394801
0.066688001 0.24332701 0.230846
0.066705003 0.26802799 0.20978101
0.066719003 0.239802 0.171827
0.066721 0.239802 0.24223299
0.066734999 0.267593 0.203733
0.066762 0.243426 0.183933
0.066767998 0.26814499 0.20947599
0.066812001 0.239546 0.17157499
0.066813998 0.239546 0.242485
0.066814996 0.26820901 0.209162
0.066822998 0.26780301 0.203981
0.066835999 0.26819399 0.208865
0.066848002 0.24328899 0.23105299
0.066891 0.239244 0.17137399
0.066892996 0.239244 0.242687
0.0669 0.26796901 0.204264
0.066951998 0.238913 0.171231
0.066955 0.238914 0.24282999
0.066964 0.268085 0.204569
0.066969 0.24326099 0.231203
0.066987999 0.26459599 0.208803
0.066993997 0.238572 0.17115
0.066996999 0.238572 0.24291
0.067005001 0.23824599 0.171166
0.067010999 0.238244 0.242907
0.067013003 0.26814899 0.204882
0.067036003 0.26813799 0.205181
0.067215003 0.26807201 0.2089
0.067216001 0.268078 0.205164
0.06724 0.221714 0.173328
0.06724 0.225714 0.173328
0.067244999 0.226714 0.17331199
0.067261003 0.24025699 0.173005
0.067299001 0.22172201 0.173158
0.067299001 0.225706 0.173158
0.067354999 0.226742 0.172996
0.067456 0.221826 0.172704
0.067456 0.225601 0.172704
0.067510001 0.22688299 0.17254999
0.067601003 0.22204401 0.172287
0.067601003 0.225383 0.172287
0.067633003 0.264469 0.20950399
0.067634001 0.26440701 0.209291
0.067634001 0.26430401 0.208904
0.067642003 0.26455599 0.20971701
0.067648999 0.227136 0.172151
0.067662001 0.26466799 0.209924
0.067671001 0.26673001 0.21079101
0.067691997 0.264806 0.21012001
0.067699 0.019331001 0.177669
0.067699 0.019331001 0.236393
0.067723997 0.22236399 0.171933
0.067723997 0.225063 0.171933
0.067731999 0.26496601 0.210301
0.067763001 0.227484 0.171822
0.067777999 0.243793 0.22931001
0.067782998 0.265147 0.210462
0.067818001 0.222766 0.171664
0.067818001 0.22466099 0.171664
0.067841999 0.26534399 0.21059901
0.067846 0.227907 0.171583
0.067849003 0.017514 0.185706
0.067849003 0.017514 0.228356
0.067851 0.26666999 0.203252
0.067876004 0.223225 0.171496
0.067876004 0.22420201 0.171496
0.067892 0.228379 0.17144901
0.067896001 0.22371399 0.17143799
0.067901 0.228714 0.171423
0.067909002 0.265553 0.21070801
0.067945004 0.243524 0.230598
0.067982003 0.265769 0.210789
0.068057999 0.265986 0.210842
0.068162002 0.244019 0.185159
0.068186 0.26405501 0.20898899
0.068204001 0.264081 0.205088
0.068216003 0.266408 0.21086501
0.068226002 0.26653901 0.21085
0.068260998 0.266525 0.21085399
0.068317004 0.26650599 0.20320199
0.068324 0.26650801 0.210859
0.068388 0.244012 0.184883
0.068498999 0.26644599 0.20318399
0.068573996 0.24401601 0.18464699
0.068611003 0.020939 0.175466
0.068611003 0.020939 0.23859499
0.068613999 0.23831899 0.17167801
0.068697996 0.01761 0.18423501
0.068697996 0.01761 0.229826
0.068769 0.243976 0.184422
0.068922997 0.225714 0.174714
0.068922997 0.225714 0.23934799
0.068922997 0.226714 0.174714
0.068922997 0.226714 0.23934799
0.068935998 0.24039 0.17370801
0.068958998 0.26624399 0.210945
0.068960004 0.243903 0.184222
0.068961002 0.240374 0.24039
0.068971999 0.26627401 0.210931
0.068993002 0.21904001 0.174545
0.068993002 0.21904001 0.239516
0.068993002 0.221714 0.174545
0.068993002 0.221714 0.239516
0.069017999 0.26379201 0.204998
0.069030002 0.26748899 0.20906501
0.069090001 0.26652601 0.210775
0.069101997 0.240279 0.17332099
0.069104001 0.243948 0.184319
0.069104999 0.240279 0.240739
0.069127001 0.26618001 0.203096
0.069135003 0.26385099 0.20434999
0.069137 0.263787 0.20456301
0.069141001 0.26620999 0.20311099
0.069145001 0.26394001 0.204137
0.069147997 0.26374501 0.20477299
0.069159001 0.263713 0.20496801
0.069167003 0.264054 0.20393001
0.069201998 0.264193 0.203733
0.069204003 0.26675701 0.21057101
0.069231004 0.24013799 0.17302901
0.069233999 0.24013899 0.24103101
0.069248997 0.26435399 0.20355199
0.069260001 0.266462 0.20326699
0.069307998 0.264534 0.203392
0.069311 0.26695299 0.210324
0.069356002 0.23993801 0.172757
0.069358997 0.23993801 0.241304
0.069375999 0.266691 0.203471
0.069378003 0.24450099 0.22787499
0.069378003 0.26473001 0.203256
0.069389001 0.022972001 0.17358799
0.069389001 0.022972001 0.240474
0.069406003 0.26710701 0.210044
0.069435 0.263491 0.20918299
0.069449998 0.263643 0.209548
0.069456004 0.26493701 0.20314699
0.069458999 0.263798 0.20997401
0.069464996 0.221714 0.239877
0.069464996 0.225714 0.239877
0.069470003 0.239682 0.172521
0.069471002 0.226714 0.23989201
0.069472998 0.239682 0.24154
0.069481 0.26391199 0.210182
0.069484003 0.26721299 0.20974299
0.069484003 0.26688701 0.20371801
0.069490001 0.244516 0.22801501
0.069516003 0.228714 0.172107
0.069517002 0.26405099 0.21037801
0.069525003 0.26730201 0.20494001
0.069532998 0.23838601 0.172067
0.069535002 0.22172201 0.240042
0.069535002 0.225706 0.240042
0.069541 0.26515001 0.203067
0.069544002 0.26726899 0.209433
0.069559 0.238378 0.242019
0.069564998 0.26421201 0.210559
0.069568001 0.239383 0.172333
0.069571003 0.239384 0.24172799
0.069577001 0.26725999 0.20913699
0.069580004 0.26704001 0.203998
0.069587998 0.24454001 0.22814301
0.069601998 0.226742 0.240201
0.069626004 0.26439199 0.210719
0.069631003 0.26536399 0.203017
0.069645002 0.239057 0.17220099
0.069646999 0.239057 0.241859
0.069659002 0.26714501 0.204298
0.069697998 0.264588 0.21085501
0.069697998 0.23872 0.17212801
0.069701001 0.23872 0.241932
0.069705002 0.21744099 0.17282601
0.069705002 0.21744099 0.241235
0.069714002 0.238399 0.172144
0.069720998 0.26719999 0.20460699
0.069723003 0.221826 0.240485
0.069723003 0.225601 0.240485
0.069723003 0.26557499 0.202994
0.069728002 0.238391 0.241943
0.069757998 0.26719999 0.204908
0.069761001 0.24041501 0.24013001
0.069779001 0.26479399 0.21096399
0.069784001 0.24470501 0.18657801
0.069785997 0.22688299 0.24063499
0.069797002 0.244551 0.228394
0.069801003 0.244688 0.227495
0.069815002 0.26577699 0.202996
0.069835 0.032513998 0.170129
0.069835 0.032513998 0.24393199
0.069835 0.210714 0.170129
0.069835 0.210714 0.24393199
0.069865003 0.26588199 0.202999
0.069867 0.26500601 0.211043
0.069894999 0.22204401 0.24089099
0.069894999 0.225383 0.24089099
0.069950998 0.227136 0.241024
0.069959998 0.265219 0.21109401
0.070005 0.025356 0.172102
0.070005 0.025356 0.24195901
0.070018999 0.24451099 0.228632
0.070041001 0.22236399 0.241236
0.070041001 0.225063 0.241236
0.070063002 0.24480399 0.22725999
0.070087001 0.227484 0.241344
0.070104003 0.018208001 0.18179899
0.070104003 0.018208001 0.232262
0.070150003 0.26563001 0.21111301
0.070152 0.222766 0.24149799
0.070152 0.22466099 0.24149799
0.070185997 0.227907 0.241577
0.070188999 0.244486 0.22881401
0.070207 0.26574299 0.211108
0.070221998 0.223225 0.241662
0.070221998 0.22420201 0.241662
0.070240997 0.228379 0.241707
0.070246004 0.22371399 0.24171799
0.070247002 0.215437 0.171518
0.070247002 0.215437 0.242543
0.070252001 0.228714 0.241733
0.070285998 0.244918 0.18701801
0.070435002 0.028003 0.171064
0.070435002 0.028003 0.24299701
0.070527002 0.017514 0.18749499
0.070527002 0.017514 0.226566
0.070584998 0.213148 0.170701
0.070584998 0.213148 0.24336
0.070662998 0.030816 0.17051201
0.070662998 0.030816 0.243549
0.070699997 0.032513998 0.170423
0.070699997 0.032513998 0.24363901
0.070699997 0.210714 0.170423
0.070699997 0.210714 0.24363901
0.070837997 0.26549 0.20287099
0.070839003 0.26549 0.21119
0.070850998 0.262768 0.20461001
0.070863999 0.26298699 0.204035
0.070866004 0.262918 0.204248
0.070874996 0.26308 0.203823
0.070900001 0.26319599 0.20361599
0.070941001 0.263336 0.20342
0.070978999 0.245354 0.18776999
0.070997 0.26349699 0.20323899
0.071066998 0.26367599 0.20308
0.071067996 0.26275301 0.209437
0.071121998 0.24536701 0.18761399
0.071148999 0.26387 0.20294499
0.071171001 0.262813 0.21009301
0.071174003 0.262743 0.20987999
0.071181998 0.26290599 0.21030501
0.071203999 0.262658 0.20947801
0.071208 0.26302299 0.210512
0.071234003 0.24540199 0.187473
0.071243003 0.26407301 0.20283701
0.071249999 0.263163 0.21070801
0.071308002 0.26332399 0.210889
0.071345001 0.264281 0.202759
0.071353003 0.24542201 0.187333
0.071379997 0.26350299 0.21104801
0.071404003 0.240596 0.23930299
0.071414001 0.240587 0.174749
0.071428001 0.019331001 0.179507
0.071428001 0.019331001 0.23455399
0.071451999 0.26448801 0.20271
0.071456 0.26517501 0.21130501
0.071465001 0.26369601 0.211183
0.071479 0.245427 0.187197
0.071491003 0.26523399 0.211272
0.071561001 0.01761 0.186148
0.071561001 0.01761 0.22791301
0.071562 0.26389799 0.21129
0.071594998 0.240475 0.17439701
0.071595997 0.240475 0.239664
0.071598999 0.26510099 0.20273
0.071608998 0.245415 0.18706501
0.071627997 0.221714 0.175188
0.071627997 0.225714 0.175188
0.071629003 0.26547 0.211115
0.071635 0.226714 0.175173
0.071636997 0.265167 0.202766
0.071667001 0.26410499 0.21136799
0.071672998 0.26488599 0.202693
0.071708001 0.22172201 0.175028
0.071708001 0.225706 0.175028
0.071741998 0.245388 0.18694
0.071745999 0.24033201 0.174123
0.071746998 0.24033201 0.23993801
0.071753003 0.26502201 0.202701
0.071764998 0.265683 0.21091101
0.071777001 0.26540199 0.202923
0.071777001 0.26431099 0.211417
0.071786001 0.226742 0.17487399
0.071800999 0.23855101 0.173026
0.071809001 0.24518199 0.227525
0.071877003 0.24534599 0.186822
0.071891002 0.26586199 0.210667
0.071892001 0.24013001 0.17387
0.071893997 0.24013101 0.240191
0.071914002 0.26561299 0.203127
0.071924999 0.221826 0.17459901
0.071924999 0.225601 0.17459901
0.071952 0.24535801 0.18674301
0.071998999 0.22688299 0.17445301
0.072003998 0.26600099 0.210391
0.072005004 0.264705 0.21143299
0.072026998 0.239876 0.17365199
0.072028004 0.239876 0.240409
0.072042003 0.26579201 0.203371
0.072048999 0.266222 0.209463
0.072065003 0.245959 0.225187
0.072094001 0.26484901 0.21142299
0.072097003 0.26609299 0.210095
0.072123997 0.22204401 0.17420501
0.072123997 0.225383 0.17420501
0.072143003 0.239581 0.17348
0.072144002 0.239581 0.24058001
0.072154999 0.26592901 0.203647
0.072169997 0.266139 0.20979001
0.072187997 0.24602801 0.225324
0.072190002 0.227136 0.17407601
0.072192997 0.24547701 0.186948
0.072217003 0.26613301 0.20949399
0.072233997 0.245465 0.227108
0.072233997 0.26193199 0.209786
0.072233997 0.239259 0.173362
0.072236001 0.239259 0.24069799
0.072240002 0.240688 0.23888201
0.072250001 0.26602101 0.203943
0.072270997 0.26197401 0.20431
0.072292998 0.22236399 0.173871
0.072292998 0.225063 0.173871
0.072299004 0.23892701 0.173299
0.072301 0.23892701 0.240761
0.072310001 0.24607401 0.225474
0.072323002 0.26606601 0.204247
0.072327003 0.238609 0.173308
0.072338 0.238602 0.240768
0.072347 0.227484 0.173765
0.072421998 0.222766 0.17361601
0.072421998 0.22466099 0.17361601
0.07243 0.26604 0.204538
0.072439 0.238611 0.240722
0.072440997 0.24610101 0.225623
0.072448 0.240669 0.175183
0.072460003 0.227907 0.17354
0.072479002 0.26198599 0.203632
0.072483003 0.261911 0.203843
0.072490998 0.26208299 0.203421
0.072494999 0.26184899 0.204262
0.072499998 0.26185799 0.204051
0.072502002 0.223225 0.173457
0.072502002 0.22420201 0.173457
0.072521001 0.26220301 0.203215
0.072524004 0.228379 0.17341401
0.072526999 0.261821 0.20424899
0.072530001 0.22371399 0.17340299
0.072536997 0.228714 0.173388
0.072567999 0.262344 0.20302001
0.072581001 0.24611101 0.225769
0.072591998 0.24068099 0.175244
0.072618999 0.020939 0.177443
0.072618999 0.020939 0.236619
0.072633997 0.26250401 0.202841
0.072715998 0.26268101 0.202683
0.072727002 0.24610201 0.225908
0.072748996 0.26156899 0.209939
0.072751001 0.261794 0.210512
0.072755001 0.261718 0.210301
0.072764002 0.26189199 0.210723
0.072772004 0.228714 0.24045999
0.072773002 0.26166299 0.210094
0.072793998 0.262012 0.21092799
0.072801001 0.238654 0.24052
0.072812997 0.26287001 0.202549
0.072842002 0.26215401 0.211123
0.072876997 0.246075 0.22603901
0.072910003 0.26231399 0.211301
0.072922997 0.26306599 0.202443
0.072949 0.017514 0.189619
0.072949 0.017514 0.224443
0.072965004 0.24663299 0.224108
0.072993003 0.24662 0.189955
0.072994001 0.26249 0.211459
0.073027998 0.24603 0.226161
0.073043004 0.263266 0.20236599
0.073049001 0.246656 0.190017
0.073094003 0.26267701 0.211592
0.073105998 0.246048 0.22624999
0.073118001 0.21904001 0.176579
0.073118001 0.21904001 0.237482
0.073138997 0.24594501 0.18775301
0.073169999 0.263464 0.202318
0.073174 0.26429799 0.211623
0.073206998 0.26287201 0.211698
0.073214002 0.264276 0.20242999
0.073273003 0.018208001 0.183917
0.073273003 0.018208001 0.23014501
0.073330998 0.26306999 0.211775
0.073411003 0.247003 0.190522
0.073430002 0.26383799 0.20230401
0.073461004 0.263266 0.211823
0.073508002 0.247016 0.190432
0.073569998 0.247054 0.190349
0.073579997 0.264038 0.202334
0.073634997 0.247088 0.190266
0.073636003 0.022972001 0.17568199
0.073636003 0.022972001 0.238379
0.073703997 0.247117 0.190183
0.073717996 0.221714 0.237727
0.073717996 0.225714 0.237727
0.073726997 0.226714 0.23774201
0.073728003 0.26363501 0.21183699
0.073732004 0.247207 0.223188
0.073762 0.24087 0.17596599
0.07378 0.24085701 0.238107
0.073785998 0.26530901 0.209785
0.073785998 0.26530999 0.20427699
0.073798001 0.263895 0.211785
0.073810004 0.22172201 0.237882
0.073810004 0.225706 0.237882
0.073830001 0.26080701 0.210263
0.073853001 0.24715801 0.190019
0.073887996 0.26383701 0.211808
0.073895 0.26403299 0.21170799
0.073898003 0.226742 0.23803
0.073918 0.26381999 0.202246
0.073919997 0.26062 0.203684
0.073925003 0.26086199 0.203124
0.073928997 0.26077899 0.20333201
0.073940001 0.26096499 0.202916
0.07395 0.26071599 0.203537
0.073973998 0.26108801 0.202713
0.073977001 0.240742 0.17564
0.073977999 0.240742 0.23842099
0.074014001 0.247178 0.18986
0.074020997 0.263964 0.202327
0.074028999 0.26122999 0.202521
0.074047998 0.21744099 0.174968
0.074047998 0.21744099 0.239094
0.074054003 0.26425001 0.211551
0.074055001 0.221826 0.238296
0.074055001 0.225601 0.238296
0.074105002 0.261388 0.202345
0.074138001 0.22688299 0.238436
0.074148998 0.240596 0.175387
0.074148998 0.01761 0.188418
0.074148998 0.01761 0.22564299
0.074150003 0.240596 0.238674
0.074166998 0.26064599 0.211043
0.074170999 0.26056099 0.21083499
0.07418 0.26418 0.202484
0.074181996 0.26075 0.21125001
0.074184 0.24717601 0.18971001
0.074190997 0.26049599 0.210632
0.074192002 0.26042899 0.21045899
0.074199997 0.26155999 0.202189
0.074208997 0.26444301 0.211348
0.074216999 0.260874 0.21145201
0.074274004 0.26101601 0.211643
0.074280001 0.22204401 0.238675
0.074280001 0.225383 0.238675
0.074311003 0.247776 0.22236501
0.074313 0.26174101 0.202057
0.074314997 0.240394 0.175155
0.074316002 0.240394 0.238906
0.074336998 0.26437101 0.202686
0.074352004 0.26117301 0.21181799
0.074353002 0.227136 0.23879901
0.074354 0.26460299 0.211107
0.074359998 0.247151 0.18957099
0.074440002 0.025356 0.17429
0.074440002 0.025356 0.23977201
0.074441001 0.26192701 0.20195299
0.074449003 0.26134399 0.21197399
0.074459001 0.24785399 0.22254799
0.074469 0.240142 0.17495801
0.074469998 0.240142 0.239103
0.074470997 0.22236399 0.238997
0.074470997 0.225063 0.238997
0.074483 0.26453099 0.20292699
0.074483 0.264723 0.21083599
0.074530996 0.227484 0.239099
0.074538 0.247104 0.189446
0.074565001 0.26152301 0.21210501
0.074579999 0.26211399 0.201877
0.074592002 0.26480001 0.210545
0.074602 0.239851 0.174805
0.074602 0.247932 0.222726
0.074602999 0.239851 0.23925599
0.074612997 0.26464999 0.203199
0.074616 0.222766 0.239243
0.074616 0.22466099 0.239243
0.074640997 0.240952 0.237673
0.074656002 0.247099 0.189348
0.074660003 0.227907 0.239316
0.074676998 0.264833 0.210246
0.074695997 0.26170701 0.21221
0.074707001 0.223225 0.23939601
0.074707001 0.22420201 0.23939601
0.074708 0.23953401 0.174703
0.074708998 0.23953401 0.23935799
0.074721999 0.26472601 0.20348901
0.074726999 0.262297 0.201829
0.074729003 0.26481301 0.20996
0.074731998 0.228379 0.239438
0.074738003 0.22371399 0.239448
0.074745998 0.228714 0.239462
0.074755996 0.215437 0.173742
0.074755996 0.215437 0.240319
0.074763 0.247987 0.222901
0.074778996 0.24811099 0.191579
0.074785002 0.239208 0.174652
0.074786 0.239208 0.239409
0.074808002 0.26475799 0.203787
0.074821003 0.238897 0.239391
0.074826002 0.238887 0.17464601
0.074839003 0.26189101 0.212286
0.074858002 0.264734 0.204071
0.074862003 0.25980899 0.203302
0.074877001 0.26247299 0.201809
0.074883997 0.019331001 0.181817
0.074883997 0.019331001 0.232245
0.074940003 0.248017 0.22307
0.074942999 0.248169 0.191401
0.074948996 0.25963601 0.210869
0.074970998 0.225714 0.177946
0.074970998 0.225714 0.23611499
0.074970998 0.226714 0.177946
0.074970998 0.226714 0.23611499
0.074974 0.25965801 0.203215
0.074988998 0.26207101 0.21233299
0.075002 0.028003 0.173317
0.075002 0.028003 0.24074499
0.075028002 0.26263899 0.20181499
0.075029999 0.21904001 0.177857
0.075029999 0.21904001 0.236205
0.075047001 0.26464599 0.21001901
0.075064003 0.24851499 0.221296
0.075071998 0.221714 0.17779399
0.075071998 0.221714 0.236267
0.075071998 0.017514 0.19204099
0.075071998 0.017514 0.222021
0.075122997 0.248202 0.191229
0.075130001 0.24802101 0.22322901
0.075143002 0.262243 0.21235301
0.075163998 0.259628 0.20249
0.075166002 0.25953501 0.202692
0.075179003 0.25938401 0.20305599
0.075181998 0.259738 0.202288
0.075185999 0.25945899 0.20289101
0.075198002 0.213148 0.172976
0.075198002 0.213148 0.24108499
0.075222999 0.259864 0.20209099
0.075264998 0.24878301 0.22094201
0.075286999 0.260005 0.201905
0.075297996 0.26240501 0.212348
0.075300999 0.030816 0.17279901
0.075300999 0.030816 0.241263
0.075304002 0.24751601 0.224086
0.075309001 0.26291999 0.201883
0.075317003 0.248208 0.19106901
0.075319 0.26448601 0.203982
0.075326003 0.248 0.223373
0.075349003 0.032513998 0.17271499
0.075349003 0.032513998 0.241346
0.075349003 0.210714 0.17271499
0.075349003 0.210714 0.241346
0.075364001 0.25939199 0.211702
0.075364999 0.248916 0.22076701
0.075365998 0.25929701 0.211501
0.075374 0.23896299 0.23908199
0.075374998 0.26015899 0.20173299
0.075378999 0.248888 0.19327401
0.075383998 0.25950301 0.21190301
0.075386003 0.25921899 0.21130399
0.075392 0.24890999 0.19330201
0.075406 0.24889299 0.221137
0.075407997 0.26285601 0.201858
0.075407997 0.26285601 0.21220399
0.075411998 0.25915101 0.21111999
0.075425997 0.25962999 0.212098
0.075427003 0.248969 0.19337399
0.075484 0.260322 0.201581
0.075492002 0.25977099 0.212283
0.075494997 0.259065 0.211165
0.075494997 0.249028 0.193277
0.075517997 0.248188 0.190924
0.075525999 0.247954 0.2235
0.075556003 0.24899299 0.221331
0.075560004 0.249088 0.193178
0.075576 0.26267701 0.212286
0.075581998 0.25992399 0.21245401
0.075612001 0.26049101 0.201451
0.075631998 0.249143 0.19307899
0.075684004 0.24792001 0.22360601
0.075692996 0.26008499 0.212605
0.075710997 0.249192 0.19298001
0.075723 0.248142 0.190797
0.075727999 0.221714 0.177617
0.075727999 0.225714 0.177617
0.075731002 0.24906801 0.221522
0.075737998 0.226714 0.17760301
0.075756997 0.26066199 0.20134801
0.075824 0.26025099 0.212734
0.075829998 0.22172201 0.177469
0.075829998 0.225706 0.177469
0.075873002 0.248024 0.190626
0.075884998 0.228714 0.175372
0.075888999 0.24927101 0.19278599
0.075897999 0.239061 0.175348
0.075915001 0.26082999 0.201272
0.075919002 0.248079 0.190689
0.075926997 0.226742 0.17732701
0.075929001 0.24911401 0.221705
0.075971998 0.260418 0.212837
0.076002002 0.26245901 0.212383
0.076012 0.241235 0.17735399
0.076053001 0.241199 0.236763
0.076080002 0.260993 0.201224
0.076084003 0.249873 0.219505
0.076090001 0.249321 0.192601
0.076091997 0.24988399 0.219491
0.076102003 0.221826 0.177073
0.076102003 0.225601 0.177073
0.076119997 0.250119 0.194809
0.076122999 0.262407 0.201664
0.076132998 0.260582 0.21291301
0.076137997 0.018208001 0.18642899
0.076137997 0.018208001 0.227632
0.076142997 0.24913099 0.221873
0.076154001 0.25819901 0.201903
0.076158002 0.258302 0.20171
0.076171003 0.258109 0.20209201
0.076183997 0.25841799 0.201518
0.076183997 0.262676 0.212258
